ply
format ascii 1.0
element vertex 1264
property float x
property float y
property float z
property uchar diffuse_red
property uchar diffuse_green
property uchar diffuse_blue
end_header
0.469987 0.173563 0.846089 104 124 117
0.462097 0.200613 0.846096 114 112 109
0.518161 -0.034820 0.805857 68 68 72
0.439213 0.271038 0.841438 62 66 62
0.485708 0.124750 0.841404 40 46 43
0.475188 0.161789 0.844157 153 166 168
0.356167 0.442313 0.819284 96 106 111
0.511382 0.011644 0.821494 135 147 151
0.466619 0.191492 0.844661 34 33 41
0.486837 0.126423 0.840156 167 187 184
0.451380 0.241745 0.842495 26 27 35
0.360258 0.440448 0.818052 67 69 69
0.497412 0.094197 0.834267 179 200 196
0.475334 0.174457 0.841265 33 43 53
0.475334 0.174457 0.841265 33 43 53
0.469411 0.193337 0.841851 52 42 45
0.500955 0.085456 0.831540 140 150 140
0.456002 0.239046 0.839600 41 36 37
0.520919 -0.008469 0.809401 214 231 221
0.503206 0.081248 0.829700 180 194 193
0.497825 0.103143 0.832933 77 75 67
0.497825 0.103143 0.832933 77 75 67
0.363905 0.439648 0.816329 79 97 94
0.500902 0.093503 0.831000 166 176 168
0.500192 0.097017 0.831320 58 53 53
0.500192 0.097017 0.831320 58 53 53
0.487443 0.143899 0.836763 159 175 173
0.475336 0.186308 0.838558 135 145 154
0.526514 -0.044620 0.794287 97 88 86
0.370042 0.429561 0.818494 29 35 55
0.471096 0.201071 0.838159 51 45 52
0.387808 0.395511 0.825879 91 123 178
0.507831 0.072541 0.825694 200 220 218
0.506823 0.078777 0.826282 191 206 204
0.506823 0.078777 0.826282 191 206 204
0.485117 0.160595 0.835573 139 160 154
0.484435 0.164065 0.835479 121 135 136
0.529055 -0.049684 0.790469 78 63 72
0.488721 0.149699 0.834454 149 169 168
0.476148 0.191751 0.836364 127 120 111
0.399775 0.374660 0.828453 104 136 163
0.396242 0.381771 0.827306 86 102 151
0.505754 0.085669 0.826813 146 151 145
0.482227 0.173732 0.835238 107 131 132
0.364213 0.446295 0.812329 143 137 160
0.343230 0.484949 0.800880 97 123 124
0.464307 0.232961 0.834482 62 60 63
0.507927 0.083128 0.825056 68 65 58
0.491303 0.146526 0.832689 131 143 131
0.527212 -0.016942 0.800727 174 167 159
0.467166 0.227363 0.834002 23 22 34
0.467166 0.227363 0.834002 23 22 34
0.398865 0.380980 0.825962 116 155 206
0.524491 0.004731 0.806947 227 244 237
0.469761 0.223412 0.833403 76 63 65
0.510308 0.080477 0.822661 184 189 182
0.370722 0.440858 0.811429 103 105 131
0.533313 -0.058460 0.783466 120 102 108
0.490570 0.157209 0.831235 151 172 174
0.414248 0.352279 0.829137 173 208 243
0.414248 0.352279 0.829137 173 208 243
0.516523 0.055205 0.817592 178 189 176
0.465212 0.239745 0.831623 18 20 25
0.504475 0.109085 0.825826 47 51 63
0.504475 0.109085 0.825826 47 51 63
0.504475 0.109085 0.825826 47 51 63
0.380544 0.422799 0.815685 30 42 89
0.373105 0.438294 0.811479 37 43 32
0.389284 0.407014 0.818770 63 80 123
0.457096 0.266224 0.828450 36 43 46
0.409265 0.366274 0.826011 39 35 49
0.503489 0.117540 0.825471 82 87 81
0.482880 0.190505 0.830525 69 67 71
0.518299 0.056639 0.815442 175 187 175
0.484421 0.186885 0.830059 116 135 136
0.484421 0.186885 0.830059 116 135 136
0.413740 0.359363 0.826146 91 134 174
0.480879 0.198531 0.830132 98 89 91
0.371177 0.445702 0.808437 143 127 146
0.407358 0.375696 0.822689 141 179 218
0.513558 0.085598 0.818987 127 103 92
0.496095 0.153966 0.826590 122 148 140
0.496095 0.153966 0.826590 122 148 140
0.412957 0.365107 0.823957 44 58 84
0.379855 0.433078 0.810140 93 108 105
0.375995 0.440235 0.808559 90 76 88
0.388085 0.417877 0.813514 59 87 137
0.403460 0.387248 0.819525 50 80 114
0.380292 0.434788 0.808825 46 56 66
0.361162 0.468376 0.800951 86 119 138
0.417823 0.358422 0.823668 103 138 189
0.497394 0.156867 0.824854 67 75 71
0.497394 0.156867 0.824854 67 75 71
0.356954 0.477444 0.797721 101 118 139
0.505424 0.129420 0.821858 115 129 127
0.524288 0.051688 0.809109 199 218 209
0.396278 0.407608 0.813600 71 99 148
0.503944 0.143405 0.820960 156 176 179
0.408190 0.385923 0.816822 47 54 56
0.408190 0.385923 0.816822 47 54 56
0.523991 0.064161 0.809009 61 64 51
0.523991 0.064161 0.809009 61 64 51
0.531601 0.027207 0.800450 214 233 231
0.494099 0.180826 0.822246 121 155 160
0.468099 0.261763 0.820341 84 91 75
0.466582 0.266202 0.820154 71 71 65
0.396152 0.413608 0.810327 60 105 147
0.542447 -0.046328 0.774606 65 62 62
0.386009 0.434726 0.805046 114 114 134
0.541595 -0.034261 0.777736 69 70 72
0.517208 0.101413 0.813447 161 179 178
0.493236 0.187842 0.821286 49 57 74
0.488148 0.203631 0.821696 78 73 83
0.543327 -0.054956 0.771750 93 71 73
0.390568 0.428639 0.805447 87 107 100
0.507477 0.143169 0.817272 69 78 78
0.507477 0.143169 0.817272 69 78 78
0.495294 0.184942 0.819976 127 150 167
0.399028 0.412492 0.808832 68 105 147
0.544536 -0.051794 0.770982 117 97 100
0.522137 0.086888 0.809539 153 168 149
0.493510 0.191514 0.819982 33 45 66
0.499495 0.172445 0.818925 134 160 173
0.471609 0.260089 0.817625 72 77 73
0.469959 0.265573 0.817153 111 108 100
0.545328 -0.048888 0.770418 72 61 62
0.509900 0.139202 0.815475 168 191 185
0.504524 0.158816 0.816969 135 169 176
0.408788 0.395238 0.811287 63 72 77
0.408788 0.395238 0.811287 63 72 77
0.390610 0.432086 0.803343 110 125 135
0.412737 0.388344 0.812196 152 178 184
0.412737 0.388344 0.812196 152 178 184
0.544027 -0.030661 0.775489 113 108 109
0.368537 0.473714 0.792725 113 148 177
0.519274 0.108338 0.810451 123 144 130
0.377604 0.456241 0.798093 78 69 100
0.510647 0.143440 0.813842 154 185 185
0.529467 0.066686 0.802397 96 100 97
0.529467 0.066686 0.802397 96 100 97
0.414979 0.387230 0.810965 44 59 67
0.414979 0.387230 0.810965 44 59 67
0.420958 0.378178 0.811149 52 77 85
0.547237 -0.033565 0.770594 81 74 80
0.515129 0.134936 0.810728 155 182 182
0.476639 0.260825 0.812631 46 51 64
0.496903 0.202509 0.813201 19 34 58
0.496903 0.202509 0.813201 19 34 58
0.539593 0.031783 0.790811 187 196 176
0.550255 -0.038260 0.765686 118 103 116
0.537146 0.051612 0.794239 184 204 196
0.541803 0.029509 0.788198 210 231 225
0.514256 0.153227 0.807805 157 176 184
0.511181 0.163617 0.808814 136 172 186
0.544373 0.019564 0.784199 117 116 110
0.544373 0.019564 0.784199 117 116 110
0.389308 0.449122 0.794396 107 101 118
0.553732 -0.054730 0.758034 89 72 71
0.525562 0.114673 0.802349 171 184 178
0.423723 0.385328 0.805127 135 166 178
0.538344 0.058633 0.792394 171 180 166
0.552473 -0.033438 0.763732 133 123 124
0.522504 0.129555 0.803365 160 179 181
0.506929 0.186195 0.807306 130 159 187
0.506929 0.186195 0.807306 130 159 187
0.535588 0.081150 0.794315 184 206 203
0.556082 -0.055024 0.754324 116 102 112
0.508644 0.186844 0.805125 49 64 88
0.528721 0.115274 0.798411 162 184 180
0.530320 0.109749 0.797455 177 196 188
0.557546 -0.060033 0.751163 95 74 75
0.540465 0.066102 0.789451 189 212 204
0.466835 0.310455 0.800270 51 47 58
0.468923 0.305333 0.800466 52 53 54
0.383966 0.469143 0.785241 91 112 127
0.532696 0.105706 0.795326 133 146 129
0.558468 -0.057314 0.750456 126 113 117
0.532706 0.108972 0.794736 167 193 186
0.557738 -0.035006 0.756113 117 104 105
0.547883 0.042777 0.780508 210 225 224
0.419778 0.409213 0.794109 92 103 93
0.532390 0.116951 0.793705 122 138 145
0.515033 0.179207 0.800181 90 122 147
0.403189 0.440313 0.789405 104 96 110
0.416411 0.417983 0.791835 96 85 99
0.562213 -0.067048 0.742535 126 107 109
0.472980 0.308074 0.795091 59 52 60
0.412901 0.427169 0.789453 107 102 111
0.563427 -0.076777 0.737863 124 111 113
0.514903 0.192141 0.796032 65 78 115
0.549608 0.058184 0.777775 165 181 170
0.535645 0.120465 0.789078 47 48 63
0.535645 0.120465 0.789078 47 48 63
0.564999 -0.066452 0.738489 85 68 74
0.545329 0.083174 0.781809 163 182 171
0.431652 0.401453 0.788231 140 153 168
0.526306 0.164475 0.790794 88 121 155
0.523777 0.174222 0.790817 37 54 81
0.538755 0.121055 0.784995 147 174 179
0.555886 0.041660 0.769166 198 207 194
0.533213 0.144317 0.787116 84 115 143
0.525037 0.174829 0.789189 99 117 161
0.525037 0.174829 0.789189 99 117 161
0.567652 -0.060383 0.736021 56 52 50
0.547479 0.085978 0.778687 163 174 176
0.540452 0.116370 0.783656 58 63 88
0.477559 0.312168 0.788498 79 67 66
0.481842 0.302125 0.788597 45 45 51
0.520407 0.192207 0.788058 25 31 45
0.566114 -0.029391 0.744494 116 107 110
0.568992 -0.067653 0.732041 75 66 75
0.566208 -0.025139 0.745100 82 69 69
0.549953 0.082154 0.775570 131 144 142
0.488453 0.289292 0.787415 41 43 50
0.449198 0.375569 0.786281 171 175 179
0.569658 -0.060180 0.732694 68 66 74
0.501910 0.256916 0.786409 79 68 74
0.570129 -0.056888 0.732851 106 99 108
0.555211 0.069527 0.769480 164 178 177
0.568835 -0.024292 0.741377 93 72 88
0.503614 0.256571 0.784507 38 39 59
0.537431 0.146466 0.780886 132 156 171
0.561955 0.037026 0.759966 183 193 184
0.538345 0.148686 0.779197 34 64 116
0.404260 0.466022 0.771447 95 104 118
0.571167 -0.029071 0.736751 100 83 97
0.482006 0.316561 0.781283 111 113 100
0.550727 0.101801 0.771894 130 124 121
0.549541 0.111865 0.771806 57 62 89
0.558906 0.070595 0.763571 170 186 174
0.572204 -0.018863 0.736952 118 102 103
0.560062 0.066925 0.762120 60 69 71
0.407834 0.464949 0.769147 85 96 108
0.550245 0.116927 0.769839 104 129 137
0.561616 0.062895 0.760041 139 136 111
0.553346 0.103648 0.767625 54 61 78
0.577003 -0.076705 0.717156 115 113 103
0.575602 -0.043475 0.726960 119 102 109
0.555581 0.099116 0.765217 109 132 136
0.578049 -0.096236 0.708321 189 194 171
0.555120 0.104346 0.764701 152 171 169
0.447480 0.399370 0.774609 42 33 44
0.574952 -0.012239 0.733735 100 70 73
0.580124 -0.090692 0.706836 133 134 116
0.405879 0.480309 0.759648 90 74 120
0.582069 -0.071692 0.709785 140 147 113
0.581900 -0.066423 0.711066 148 151 128
0.580591 -0.040938 0.719176 110 98 106
0.102778 0.489491 0.842250 115 138 139
0.108102 0.505964 0.833927 130 157 185
0.107272 0.510011 0.831558 130 160 182
0.107272 0.510011 0.831558 130 160 182
0.106227 0.513912 0.829268 115 142 168
0.109597 0.511446 0.831018 81 100 106
0.118077 0.499038 0.838815 87 112 137
0.147951 0.487475 0.846473 87 103 113
0.139043 0.520356 0.827908 32 33 66
0.152858 0.497721 0.841121 116 146 168
0.164160 0.485411 0.847698 161 180 226
0.159882 0.501396 0.839024 127 160 185
0.187230 0.476424 0.851529 165 147 161
0.205451 0.444684 0.866248 58 58 48
0.198742 0.460091 0.859241 83 89 92
0.197656 0.463743 0.857417 171 176 174
0.349057 0.095472 0.930643 107 102 105
0.202309 0.458779 0.859532 180 188 182
0.174494 0.517192 0.829440 84 81 116
0.371296 0.014346 0.923024 113 99 101
0.364345 0.045730 0.926345 109 107 105
0.192013 0.483914 0.846966 136 134 175
0.313804 0.228418 0.921588 106 93 101
0.208047 0.458091 0.859144 176 180 167
0.354728 0.099130 0.927659 46 40 51
0.354728 0.099130 0.927659 46 40 51
0.242077 0.400112 0.881820 106 97 76
0.212285 0.454062 0.860717 185 197 189
0.179531 0.517061 0.829215 82 85 123
0.179531 0.517061 0.829215 82 85 123
0.220446 0.440951 0.866126 189 194 180
0.368038 0.057899 0.924190 107 96 105
0.351185 0.127273 0.926141 110 99 105
0.349177 0.134735 0.926008 115 100 99
0.332490 0.190675 0.923267 115 102 113
0.329423 0.198168 0.922847 100 92 105
0.294844 0.296819 0.908220 107 88 100
0.288157 0.313545 0.904674 101 77 78
0.375670 0.042072 0.920703 70 67 80
0.374840 0.049717 0.921007 73 64 67
0.322466 0.232692 0.917412 93 77 93
0.228548 0.437288 0.866605 183 189 183
0.374784 0.055682 0.920874 112 100 110
0.339191 0.188879 0.920935 79 69 81
0.390820 -0.015844 0.911005 111 100 104
0.349398 0.157530 0.922423 62 58 73
0.319485 0.247104 0.914718 81 71 77
0.302450 0.292106 0.907296 109 95 108
0.319325 0.251128 0.913683 103 100 101
0.228423 0.443038 0.863832 56 56 59
0.355961 0.140239 0.922187 119 102 112
0.336013 0.204846 0.918810 109 97 104
0.329868 0.224273 0.916692 70 64 78
0.340642 0.192871 0.919499 69 67 84
0.333581 0.215520 0.917333 79 67 81
0.391848 0.000615 0.911248 119 111 123
0.231532 0.443139 0.863258 178 186 164
0.367133 0.111120 0.920668 77 66 71
0.341602 0.197238 0.918201 109 102 108
0.231532 0.443139 0.863258 178 186 164
0.394547 -0.008762 0.909162 85 74 81
0.356368 0.151895 0.920252 80 72 82
0.354178 0.160623 0.919780 69 64 78
0.210561 0.482670 0.845606 152 159 202
0.368384 0.114632 0.919636 122 108 112
0.364357 0.132237 0.919429 125 108 114
0.397904 -0.010703 0.907110 114 105 108
0.390391 0.029124 0.912882 104 91 100
0.381706 0.070479 0.916610 66 59 73
0.368777 0.121721 0.918627 120 113 121
0.368777 0.121721 0.918627 120 113 121
0.364402 0.136497 0.918831 77 75 82
0.221801 0.469008 0.851485 152 168 176
0.405341 -0.048743 0.898601 115 114 123
0.400682 -0.009583 0.905448 80 76 86
0.400682 -0.009583 0.905448 80 76 86
0.405505 -0.039353 0.899809 84 68 71
0.320193 0.277733 0.905596 112 103 108
0.391505 0.044840 0.912110 79 64 74
0.217426 0.482150 0.844917 152 144 174
0.214255 0.488395 0.841951 70 67 121
0.214255 0.488395 0.841951 70 67 121
0.389726 0.057893 0.912747 111 102 108
0.231770 0.460866 0.854137 101 93 112
0.285412 0.357310 0.889100 157 141 116
0.202360 0.515593 0.827931 87 82 109
0.400638 0.017867 0.906768 64 59 66
0.397668 0.032190 0.908656 133 124 124
0.377166 0.115976 0.915045 102 97 97
0.381563 0.102196 0.914248 126 110 117
0.406487 -0.011243 0.901823 112 109 113
0.396198 0.044361 0.909445 122 112 113
0.403292 0.011266 0.904992 100 91 100
0.219494 0.487648 0.841554 78 80 123
0.333076 0.261264 0.905510 64 59 69
0.298686 0.339466 0.891914 75 65 50
0.233793 0.467262 0.850280 70 76 85
0.393121 0.071946 0.910198 117 103 115
0.375894 0.137912 0.912873 106 108 110
0.293101 0.358946 0.886088 86 78 64
0.236388 0.467696 0.849558 145 160 170
0.412244 0.006437 0.899113 87 72 75
0.385329 0.120806 0.910255 105 93 99
0.299155 0.351983 0.886901 102 93 78
0.409834 0.031039 0.901255 67 59 71
0.341469 0.265139 0.900863 63 54 59
0.242152 0.464821 0.849906 129 136 162
0.239682 0.469755 0.847760 118 125 148
0.417308 0.020108 0.896406 132 125 127
0.349372 0.256166 0.899988 86 75 81
0.414533 0.036533 0.898338 70 67 80
0.417208 0.025478 0.896684 82 67 76
0.417395 0.031341 0.896562 114 106 113
0.318106 0.331802 0.887982 81 85 75
0.250313 0.463367 0.848867 135 154 174
0.426666 -0.014325 0.888294 83 72 76
0.230679 0.505315 0.829483 103 120 143
0.230679 0.505315 0.829483 103 120 143
0.431679 -0.018829 0.884424 75 69 70
0.358415 0.252646 0.896839 93 82 83
0.306085 0.372431 0.876104 77 75 77
0.347182 0.285248 0.892048 64 53 54
0.255689 0.465205 0.846570 53 53 55
0.234249 0.504690 0.829137 106 127 143
0.424184 0.033242 0.892045 71 66 75
0.257591 0.462653 0.847466 121 144 150
0.426047 0.035847 0.890840 109 100 106
0.327762 0.332199 0.884074 99 134 143
0.436750 -0.021543 0.880545 89 77 89
0.351880 0.297798 0.885681 61 51 53
0.392662 0.175897 0.898280 54 64 81
0.440601 -0.005939 0.879005 68 64 70
0.254359 0.483204 0.836908 82 75 128
0.254359 0.483204 0.836908 82 75 128
0.437065 0.015071 0.882757 90 91 103
0.356350 0.292475 0.885345 85 78 76
0.427602 0.065493 0.889925 47 51 61
0.318217 0.373668 0.871016 107 105 113
0.406462 0.142557 0.896302 159 141 137
0.405330 0.146934 0.896304 123 104 108
0.318401 0.375632 0.870084 186 183 168
0.409903 0.135303 0.895301 155 142 142
0.296053 0.419209 0.858262 171 177 170
0.271770 0.461833 0.844046 83 70 76
0.271339 0.464329 0.842824 135 148 163
0.289049 0.436064 0.852228 20 25 20
0.421679 0.054264 0.891080 49 56 49
0.303055 0.411488 0.859508 80 90 83
0.426098 0.092241 0.889910 184 169 163
0.316515 0.388558 0.865108 159 147 110
0.424763 0.099753 0.890158 183 165 156
0.399463 0.186731 0.892376 153 171 181
0.418772 0.127709 0.890949 65 60 71
0.418772 0.127709 0.890949 65 60 71
0.281088 0.458097 0.843223 159 170 169
0.277895 0.463925 0.841057 132 140 162
0.393598 0.215549 0.889036 139 168 182
0.274928 0.470429 0.838369 129 129 152
0.261503 0.498862 0.825945 124 161 185
0.255285 0.510471 0.820641 90 101 156
0.458586 -0.023734 0.863513 128 118 118
0.403839 0.190244 0.889103 142 161 169
0.283201 0.461275 0.840815 131 158 167
0.465173 -0.046930 0.855041 103 91 97
0.410175 0.183281 0.886777 128 146 143
0.271244 0.490171 0.828213 134 158 172
0.420347 0.151783 0.886393 109 89 84
0.418647 0.159058 0.886286 128 120 112
0.309394 0.428204 0.848797 42 42 48
0.418082 0.165943 0.885417 143 141 137
0.292014 0.461419 0.837742 118 137 148
0.273625 0.493425 0.825552 129 164 183
0.398750 0.237364 0.880227 121 136 138
0.446174 0.083303 0.877061 72 69 71
0.423765 0.163058 0.882282 127 109 107
0.333010 0.395051 0.855211 214 230 255
0.443708 0.104918 0.877134 170 166 154
0.423656 0.174453 0.880167 96 77 82
0.423656 0.174453 0.880167 96 77 82
0.433067 0.143938 0.879481 74 68 72
0.376093 0.314120 0.867288 116 101 73
0.478347 -0.061995 0.840861 111 97 109
0.475547 -0.039173 0.847178 122 111 112
0.358310 0.349413 0.863211 41 73 69
0.426609 0.170054 0.879095 113 99 95
0.445858 0.110544 0.875032 164 154 144
0.425938 0.177749 0.878139 113 100 101
0.479394 -0.045757 0.842837 119 102 107
0.468557 0.017332 0.860211 204 213 190
0.477953 -0.028578 0.847088 76 71 68
0.481989 -0.064300 0.836965 104 103 115
0.427130 0.180482 0.876690 54 53 52
0.435829 0.153748 0.875908 68 61 67
0.339706 0.396455 0.851451 137 155 170
0.449195 0.112646 0.872386 72 68 65
0.370166 0.339279 0.861200 40 85 81
0.417783 0.218955 0.873600 125 145 147
0.444007 0.136065 0.873086 162 177 176
0.486479 -0.065231 0.832765 100 93 99
0.453772 0.102269 0.870129 165 161 157
0.299663 0.471937 0.829030 150 172 191
0.421834 0.209834 0.873344 112 128 129
0.307596 0.461344 0.831910 121 114 142
0.463921 0.068065 0.864673 194 193 189
0.376766 0.334058 0.859634 33 69 64
0.375204 0.338239 0.858877 66 101 89
0.315806 0.450875 0.834322 165 178 180
0.362117 0.363186 0.855610 191 208 223
0.322380 0.442663 0.835886 109 113 126
0.459145 0.102774 0.866003 179 189 183
0.429814 0.202920 0.869735 138 160 163
0.409013 0.268407 0.863828 34 42 42
0.479882 0.016649 0.851043 222 223 215
0.456443 0.116783 0.866542 172 187 184
0.309955 0.466849 0.827858 145 158 182
0.461967 0.098933 0.864246 90 79 82
0.461967 0.098933 0.864246 90 79 82
0.482681 0.012374 0.848405 144 150 147
0.470125 0.071777 0.859575 179 171 167
0.464635 0.098908 0.862035 163 153 154
0.306055 0.480316 0.821596 62 75 105
0.453419 0.141318 0.865416 156 178 178
0.417486 0.254441 0.863272 53 51 58
0.295524 0.500313 0.813652 83 118 149
0.435255 0.203616 0.865807 103 120 112
0.478025 0.049772 0.853654 220 229 241
0.467570 0.094915 0.860207 156 131 122
0.465334 0.103137 0.861148 53 47 41
0.490567 -0.011299 0.838499 210 195 180
0.455545 0.142728 0.863561 84 85 82
0.455545 0.142728 0.863561 84 85 82
0.313200 0.472581 0.823175 60 56 96
0.458675 0.138429 0.861852 147 163 168
0.318216 0.466244 0.824695 123 116 135
0.457583 0.145227 0.861575 147 175 169
0.301737 0.498024 0.812583 80 113 148
0.303802 0.494539 0.813906 46 61 73
0.460761 0.136945 0.860469 149 168 173
0.485406 0.040595 0.847263 195 170 171
0.325899 0.457567 0.826193 77 75 87
0.500524 -0.043821 0.824057 62 72 80
0.500524 -0.043821 0.824057 62 72 80
0.486340 0.044067 0.846477 208 206 211
0.486340 0.044067 0.846477 208 206 211
0.465583 0.128236 0.857956 150 167 166
0.336144 0.444255 0.828640 97 83 101
0.330519 0.453022 0.826586 48 57 43
0.315064 0.480553 0.817613 80 97 110
0.325304 0.462767 0.823463 83 82 96
0.481986 0.071132 0.849840 193 174 165
0.497452 -0.002067 0.833560 167 178 182
0.458174 0.162018 0.858118 111 119 113
0.482735 0.075238 0.848894 154 129 126
0.502182 -0.018790 0.826190 195 177 163
0.328181 0.464420 0.821222 51 56 65
0.491687 0.043701 0.841735 137 136 134
0.443657 0.220242 0.855232 115 131 128
0.495659 0.030697 0.837765 208 203 195
0.495659 0.030697 0.837765 208 203 195
0.492658 0.047591 0.840807 114 106 108
0.487833 0.068580 0.844751 196 191 174
0.332179 0.460821 0.821382 158 168 180
0.315455 0.492839 0.809885 77 94 107
0.494179 0.042742 0.839413 213 215 203
0.450663 0.204146 0.854198 40 43 47
0.485864 0.081520 0.845515 163 153 144
0.363072 0.406851 0.834612 76 99 130
0.501570 0.008413 0.830825 134 131 112
0.491527 0.058194 0.841807 65 65 66
0.491527 0.058194 0.841807 65 65 66
0.426220 0.279379 0.848171 34 40 40
0.490342 0.065927 0.842582 91 88 85
0.490342 0.065927 0.842582 91 88 85
0.409315 0.321282 0.843952 66 73 65
0.343293 0.446031 0.824150 125 139 146
0.358087 0.420367 0.830277 105 139 184
0.364320 0.408026 0.833287 98 131 169
0.364320 0.408026 0.833287 98 131 169
0.449753 0.216457 0.851604 39 44 46
0.438374 0.250098 0.849812 28 29 31
0.441818 0.241912 0.850005 38 38 41
0.336321 0.463456 0.817803 125 118 146
0.484548 0.107154 0.844638 76 62 61
0.484548 0.107154 0.844638 76 62 61
0.463340 0.181632 0.849802 108 124 121
0.500989 0.041144 0.833006 193 205 185
0.484004 0.113543 0.844437 59 59 56
0.517918 -0.071315 0.798831 92 84 90
0.468831 0.171063 0.847595 158 173 173
0.490405 0.097315 0.840455 164 179 174
0.377507 0.395514 0.832085 102 134 181
0.334345 0.476325 0.811017 65 80 104
0.376862 0.399528 0.830460 94 120 166
0.321034 0.503524 0.800452 74 75 116
0.343994 0.461792 0.814834 134 130 156
0.354567 0.444708 0.818843 65 74 74
0.495362 0.090473 0.836533 164 182 176
0.511706 0.016956 0.821526 117 119 117
0.494923 0.095510 0.836481 171 181 180
0.494923 0.095510 0.836481 171 181 180
0.391292 0.374513 0.833965 115 150 191
0.495803 0.097927 0.835409 76 81 72
0.467628 0.197404 0.842368 124 120 112
0.491204 0.118262 0.837284 130 144 134
0.479866 0.158864 0.840681 145 171 175
0.496388 0.101143 0.834509 144 148 144
0.496388 0.101143 0.834509 144 148 144
0.469194 0.201518 0.839881 103 92 90
0.367141 0.433190 0.818132 52 62 88
0.528067 -0.064632 0.788622 117 101 105
0.473109 0.191041 0.839209 42 42 54
0.353731 0.457572 0.811939 109 101 121
0.499297 0.103882 0.831425 74 69 68
0.465869 0.219037 0.837673 76 77 74
0.518273 0.022560 0.815007 198 210 202
0.500625 0.107370 0.829727 114 114 98
0.403825 0.368504 0.828679 147 184 216
0.403825 0.368504 0.828679 147 184 216
0.503541 0.101056 0.827623 139 127 119
0.402950 0.371562 0.827804 54 70 67
0.493979 0.139137 0.831515 123 142 125
0.406495 0.368906 0.826662 200 234 254
0.397245 0.390182 0.822399 77 118 155
0.397245 0.390182 0.822399 77 118 155
0.504121 0.112798 0.825604 62 64 63
0.385198 0.415378 0.816828 41 69 111
0.527041 0.006062 0.804140 121 124 106
0.356623 0.469601 0.802932 73 119 142
0.410179 0.368061 0.824489 179 207 228
0.410179 0.368061 0.824489 179 207 228
0.419503 0.348634 0.827008 108 126 166
0.487276 0.183259 0.828269 58 69 65
0.506273 0.123613 0.822044 118 129 120
0.508602 0.115381 0.820738 121 127 113
0.525066 0.047355 0.808251 184 201 186
0.509009 0.119431 0.819736 166 184 181
0.509009 0.119431 0.819736 166 184 181
0.523794 0.057123 0.809387 177 191 169
0.415692 0.367675 0.820666 42 51 52
0.514502 0.102923 0.816189 165 184 180
0.350971 0.494084 0.790377 70 70 107
0.522438 0.068538 0.810463 190 205 194
0.486799 0.202797 0.823307 26 33 41
0.468666 0.258794 0.820871 25 39 28
0.463586 0.272931 0.820158 102 100 91
0.364651 0.471130 0.797072 94 111 125
0.491013 0.192103 0.822016 97 97 101
0.507056 0.140269 0.818225 159 184 188
0.510189 0.131111 0.816623 151 177 176
0.504260 0.153078 0.818567 124 139 139
0.373977 0.457747 0.799596 80 66 115
0.412735 0.385021 0.813908 51 72 84
0.405024 0.401747 0.810555 64 96 137
0.536549 0.019988 0.794168 193 204 185
0.384108 0.443970 0.801034 99 97 113
0.521493 0.101080 0.808798 52 49 44
0.521493 0.101080 0.808798 52 49 44
0.507444 0.154435 0.814829 116 141 140
0.507444 0.154435 0.814829 116 141 140
0.387679 0.441101 0.800309 122 122 142
0.367223 0.477813 0.790957 113 140 166
0.474470 0.261193 0.814544 89 88 92
0.473412 0.266356 0.813419 25 46 70
0.525309 0.093260 0.805375 179 202 197
0.416001 0.390531 0.808351 40 49 53
0.412890 0.397554 0.806867 60 90 119
0.424100 0.374840 0.810428 153 183 193
0.476505 0.263410 0.811448 46 61 81
0.422772 0.379126 0.809201 138 173 192
0.428775 0.372461 0.807870 160 193 202
0.520501 0.133103 0.805010 50 54 72
0.520501 0.133103 0.805010 50 54 72
0.403146 0.426653 0.797335 88 88 94
0.502588 0.197755 0.808337 72 101 123
0.503299 0.202344 0.805974 61 85 114
0.419594 0.399216 0.800498 80 107 151
0.557490 -0.082718 0.744991 104 98 107
0.393435 0.448003 0.792051 112 95 118
0.461468 0.320319 0.800906 68 59 62
0.534933 0.093227 0.794021 170 199 186
0.470393 0.302000 0.800639 73 71 78
0.507932 0.195709 0.802989 64 100 132
0.393481 0.452498 0.789273 78 62 108
0.435523 0.378702 0.798511 73 96 136
0.537576 0.102377 0.789640 120 131 118
0.537576 0.102377 0.789640 120 131 118
0.562638 -0.055244 0.744963 116 100 105
0.562099 -0.046268 0.747600 127 111 115
0.562099 -0.046268 0.747600 127 111 115
0.537235 0.108522 0.789177 117 129 129
0.420359 0.415611 0.789872 92 81 89
0.399105 0.453406 0.784301 79 73 131
0.412404 0.431291 0.787461 109 103 120
0.534860 0.124476 0.789231 139 169 178
0.520705 0.178564 0.793377 87 125 161
0.555475 0.036660 0.769987 197 212 207
0.472486 0.320426 0.789599 62 50 63
0.465835 0.337369 0.787784 47 52 65
0.418770 0.425934 0.785338 138 120 143
0.565830 -0.039103 0.743442 83 65 66
0.558926 0.025821 0.764969 191 205 195
0.568702 -0.077938 0.729536 41 40 47
0.569785 -0.081709 0.727003 143 143 111
0.543861 0.113162 0.779546 43 54 73
0.569992 -0.064682 0.731250 123 108 113
0.569992 -0.064682 0.731250 123 108 113
0.491190 0.286256 0.785580 76 72 76
0.558937 0.049404 0.764319 176 188 176
0.569590 -0.028208 0.739522 128 119 116
0.549323 0.100989 0.774055 93 93 94
0.572229 -0.056527 0.729909 116 108 110
0.402234 0.468437 0.771520 102 137 165
0.556287 0.070737 0.767554 68 70 75
0.556287 0.070737 0.767554 68 70 75
0.574073 -0.093874 0.715969 193 195 180
0.541088 0.140831 0.777401 41 59 92
0.541088 0.140831 0.777401 41 59 92
0.489539 0.298819 0.781711 49 49 49
0.504837 0.259531 0.781814 44 43 56
0.550747 0.106335 0.771321 54 56 64
0.415297 0.447732 0.774921 56 53 94
0.566014 0.028313 0.753300 160 134 124
0.489756 0.300600 0.780500 114 114 104
0.507350 0.256248 0.780056 87 66 77
0.478925 0.330726 0.777314 158 149 121
0.563697 0.053009 0.757036 159 151 141
0.500546 0.284215 0.775821 71 60 70
0.577922 -0.070119 0.716631 100 80 82
0.446255 0.402716 0.773829 122 109 125
0.489178 0.317488 0.772767 112 122 113
0.580554 -0.086997 0.707163 85 96 85
0.580667 -0.065214 0.713551 56 46 45
0.366746 0.090810 0.808990 98 88 93
0.584890 -0.069384 0.705455 115 123 94
0.585302 -0.081754 0.700254 105 113 94
0.585302 -0.081754 0.700254 105 113 94
0.116331 0.483338 0.847125 138 148 144
0.115659 0.514049 0.830132 114 134 167
0.137293 0.508019 0.834990 111 143 156
0.184412 0.447265 0.867044 42 49 60
0.362060 0.005595 0.927376 131 129 135
0.202428 0.449258 0.864391 159 167 167
0.182057 0.487112 0.846011 44 48 99
0.294544 0.260922 0.919212 89 102 131
0.185993 0.484511 0.847145 144 160 195
0.288861 0.278308 0.915816 59 75 103
0.196959 0.469504 0.854457 150 163 186
0.202327 0.461110 0.858295 54 50 53
0.365249 0.037037 0.926070 122 113 119
0.367739 0.026641 0.924972 119 105 113
0.353321 0.092131 0.928998 99 94 100
0.340847 0.137529 0.929147 120 106 108
0.337364 0.149668 0.928752 123 112 112
0.292987 0.283813 0.912903 128 113 124
0.378636 -0.009971 0.918082 54 49 49
0.357058 0.091391 0.927371 49 43 45
0.357058 0.091391 0.927371 49 43 45
0.213902 0.449705 0.862710 132 137 132
0.352622 0.109809 0.927575 52 47 48
0.376427 0.023887 0.920453 110 98 107
0.373268 0.038583 0.922019 106 99 107
0.345250 0.148717 0.925644 114 103 106
0.335673 0.180984 0.923926 112 102 108
0.308243 0.263827 0.913992 122 109 119
0.185965 0.516862 0.828843 92 84 123
0.202483 0.482888 0.846493 146 142 173
0.224363 0.447069 0.862504 175 183 176
0.342918 0.179808 0.921193 78 65 69
0.342918 0.179808 0.921193 78 65 69
0.324042 0.236094 0.915956 91 77 94
0.392944 -0.022966 0.909137 89 77 76
0.392944 -0.022966 0.909137 89 77 76
0.388295 0.006267 0.913741 72 64 71
0.276819 0.349973 0.894400 187 181 150
0.315686 0.264062 0.911334 119 107 120
0.309723 0.282464 0.907893 116 105 114
0.312316 0.276323 0.908877 82 76 90
0.312316 0.276323 0.908877 82 76 90
0.386198 0.031999 0.915210 70 62 71
0.216864 0.470446 0.851460 160 165 193
0.278278 0.352510 0.893018 141 107 66
0.318349 0.268471 0.909074 67 64 75
0.318349 0.268471 0.909074 67 64 75
0.312700 0.283550 0.906506 83 66 83
0.398759 -0.021214 0.905756 85 71 76
0.398759 -0.021214 0.905756 85 71 76
0.398759 -0.021214 0.905756 85 71 76
0.357686 0.154574 0.919187 103 88 102
0.396341 0.003228 0.908787 72 65 72
0.367896 0.127416 0.918322 75 61 66
0.312915 0.294457 0.902939 85 61 68
0.378937 0.098977 0.915957 83 79 94
0.226815 0.468154 0.851083 60 57 55
0.335932 0.242916 0.909502 94 87 96
0.388850 0.072500 0.912599 68 63 77
0.388850 0.072500 0.912599 68 63 77
0.339982 0.236855 0.909419 75 58 67
0.230702 0.470466 0.849142 163 172 192
0.328312 0.275041 0.903284 58 55 63
0.400700 0.041147 0.906854 75 67 68
0.337818 0.255775 0.905135 97 86 91
0.408716 0.011909 0.901548 120 108 114
0.322710 0.304166 0.896023 69 61 59
0.399529 0.076421 0.906270 109 89 100
0.307634 0.338898 0.889099 82 84 75
0.341602 0.264965 0.900854 61 51 58
0.408424 0.053162 0.901917 114 103 107
0.306322 0.353295 0.883926 22 31 26
0.316276 0.336026 0.887067 137 141 129
0.425837 -0.008335 0.889330 144 136 139
0.245442 0.476116 0.843010 123 113 134
0.245917 0.479045 0.841255 166 154 181
0.420139 0.044608 0.894723 70 62 70
0.312165 0.360308 0.878951 42 42 44
0.236060 0.501659 0.830530 126 168 191
0.247888 0.481470 0.839463 68 58 111
0.253923 0.475376 0.841423 109 103 128
0.319140 0.358226 0.877138 78 81 65
0.304348 0.388330 0.869770 104 108 92
0.359184 0.272111 0.890626 56 52 58
0.253336 0.480732 0.838554 67 59 100
0.264286 0.463664 0.845161 45 51 47
0.313084 0.378891 0.870730 114 116 114
0.426799 0.071525 0.890438 188 173 158
0.261624 0.477181 0.838403 171 169 203
0.253841 0.493771 0.830989 127 162 185
0.432802 0.060233 0.886710 183 171 160
0.393942 0.196740 0.893296 149 177 194
0.419516 0.113783 0.892121 175 155 141
0.409336 0.151179 0.893265 134 122 118
0.250136 0.511744 0.821215 79 73 112
0.345166 0.334973 0.875461 93 129 110
0.312968 0.405530 0.858604 117 124 150
0.380968 0.261938 0.882656 56 63 73
0.310374 0.412077 0.856469 21 27 32
0.460533 -0.032436 0.860824 93 82 84
0.435498 0.085304 0.884239 192 176 165
0.317528 0.401711 0.858624 167 187 205
0.429812 0.110517 0.885983 176 165 147
0.412113 0.169523 0.888423 130 111 105
0.305792 0.428475 0.850059 19 27 28
0.461017 -0.020964 0.861704 57 63 72
0.465058 -0.032736 0.857208 126 115 117
0.317575 0.413144 0.853079 84 97 112
0.441870 0.089824 0.879649 189 178 168
0.435569 0.115650 0.881552 161 146 133
0.431302 0.131375 0.882490 176 181 179
0.448586 0.068031 0.876073 206 188 173
0.267440 0.508919 0.818101 90 84 122
0.267440 0.508919 0.818101 90 84 122
0.410359 0.207950 0.881090 144 164 174
0.435486 0.128123 0.880138 80 74 75
0.435486 0.128123 0.880138 80 74 75
0.331827 0.403442 0.851665 118 126 145
0.293324 0.473035 0.830758 154 141 171
0.423971 0.185514 0.877692 129 144 155
0.281973 0.497358 0.820443 96 120 136
0.449977 0.099890 0.873057 189 178 164
0.447752 0.108818 0.873809 157 142 138
0.418510 0.209455 0.875612 130 157 159
0.421076 0.203968 0.875356 116 135 133
0.295837 0.474929 0.828751 44 56 97
0.377763 0.322552 0.863597 72 56 31
0.448694 0.117645 0.872206 183 197 197
0.430771 0.176999 0.874844 112 93 92
0.459261 0.078471 0.867824 205 197 188
0.301580 0.468001 0.830537 101 99 104
0.488053 -0.070575 0.830262 198 183 183
0.430431 0.191638 0.872019 138 161 162
0.489969 -0.066166 0.829110 109 94 96
0.289938 0.497814 0.817320 115 157 191
0.470963 0.045714 0.859385 192 182 170
0.423762 0.214638 0.870725 127 153 158
0.423762 0.214638 0.870725 127 153 158
0.381501 0.330408 0.858227 152 163 168
0.308483 0.470286 0.826497 128 129 164
0.449909 0.146540 0.867100 47 50 52
0.295110 0.496916 0.815901 62 71 62
0.291864 0.502996 0.813386 43 32 54
0.314997 0.462166 0.828419 62 63 62
0.308633 0.472841 0.824950 56 52 99
0.415015 0.265654 0.860736 16 21 21
0.314438 0.469629 0.824374 145 133 164
0.298222 0.501558 0.811806 42 36 49
0.415798 0.271065 0.858451 50 62 64
0.496107 -0.028743 0.830531 80 86 98
0.438487 0.204121 0.863438 131 154 152
0.308167 0.488832 0.815581 53 67 95
0.392498 0.331646 0.851134 137 149 140
0.498463 -0.015471 0.830483 190 185 176
0.313824 0.484297 0.815917 27 37 64
0.503531 -0.034661 0.822415 56 65 64
0.324470 0.468101 0.820804 114 136 150
0.421275 0.279752 0.851611 82 84 81
0.439065 0.228083 0.856345 120 137 137
0.470052 0.130404 0.853965 150 168 167
0.356491 0.413361 0.834789 75 101 124
0.438868 0.234629 0.854446 97 108 102
0.339555 0.450170 0.823746 46 51 43
0.449735 0.210886 0.853192 49 42 49
0.449735 0.210886 0.853192 49 42 49
0.490292 0.071458 0.842659 124 116 116
0.318241 0.494921 0.807274 108 137 168
0.487099 0.089103 0.844131 56 58 67
0.487099 0.089103 0.844131 56 58 67
0.514119 -0.056826 0.806549 101 93 95
0.336265 0.465923 0.816359 71 55 107
0.473735 0.168488 0.843996 147 166 168
0.488338 0.118866 0.839840 136 151 151
0.339577 0.473676 0.809942 95 115 144
0.456868 0.227171 0.842697 66 59 57
0.353261 0.450652 0.816181 126 115 133
0.465088 0.204421 0.842538 77 58 59
0.378691 0.404625 0.826756 94 130 176
0.359453 0.442775 0.817153 45 46 43
0.358552 0.445957 0.815865 137 136 151
0.519944 -0.009095 0.810509 214 229 216
0.511527 0.044637 0.822741 103 105 108
0.511527 0.044637 0.822741 103 105 108
0.489932 0.138324 0.835349 135 143 139
0.390220 0.389604 0.827265 89 129 175
0.390220 0.389604 0.827265 89 129 175
0.518608 0.016190 0.814231 229 240 237
0.450735 0.266036 0.833839 9 19 19
0.354041 0.460131 0.810283 153 140 173
0.530784 -0.075582 0.782622 116 102 112
0.493055 0.133064 0.833276 161 178 174
0.531547 -0.081270 0.780123 198 186 185
0.349865 0.471722 0.805534 97 123 149
0.509291 0.074083 0.824116 69 77 73
0.509291 0.074083 0.824116 69 77 73
0.495900 0.127907 0.831447 124 132 116
0.408546 0.358221 0.830357 140 187 234
0.389136 0.398302 0.823504 102 145 194
0.348309 0.476789 0.803197 123 162 182
0.508475 0.085334 0.824155 70 60 59
0.508475 0.085334 0.824155 70 60 59
0.340210 0.496261 0.795151 77 68 110
0.510738 0.094926 0.821004 118 89 81
0.365945 0.454895 0.806408 101 88 106
0.513600 0.090262 0.818498 158 145 130
0.376731 0.442863 0.806560 144 128 149
0.502284 0.142652 0.822656 151 175 183
0.450357 0.301175 0.819810 70 61 65
0.475776 0.233869 0.823556 21 25 34
0.475776 0.233869 0.823556 21 25 34
0.364545 0.467954 0.799094 97 129 153
0.529911 0.031294 0.802440 115 120 107
0.377661 0.445641 0.804435 110 96 113
0.526201 0.052804 0.806781 177 189 166
0.506347 0.136420 0.819650 104 117 111
0.518196 0.091836 0.813378 176 198 188
0.411368 0.382431 0.816300 154 181 195
0.490723 0.196051 0.821240 83 79 95
0.467963 0.269972 0.817389 14 14 22
0.530448 0.059338 0.801790 73 77 70
0.412390 0.391389 0.810682 168 194 199
0.417019 0.382326 0.811940 159 188 199
0.498617 0.193567 0.814123 28 36 62
0.518451 0.125946 0.808819 123 134 128
0.526883 0.096217 0.803276 59 61 66
0.526883 0.096217 0.803276 59 61 66
0.419536 0.386608 0.807686 144 171 188
0.419536 0.386608 0.807686 144 171 188
0.427466 0.370676 0.809866 50 73 120
0.548927 -0.014931 0.772031 197 211 199
0.504577 0.189589 0.808958 38 54 75
0.405524 0.422979 0.797680 105 111 127
0.471357 0.298218 0.801421 46 46 50
0.546361 0.046899 0.782361 56 56 64
0.375208 0.489004 0.777856 77 70 112
0.375208 0.489004 0.777856 77 70 112
0.562560 -0.083682 0.737392 49 50 50
0.518291 0.174342 0.797721 111 141 179
0.460512 0.336252 0.793585 148 151 131
0.564329 -0.088471 0.733174 193 185 183
0.544170 0.081337 0.783525 65 82 75
0.534814 0.124726 0.789306 144 175 182
0.465608 0.332092 0.790860 74 76 64
0.566238 -0.085332 0.731271 71 60 66
0.558277 0.012306 0.764026 207 220 214
0.551576 0.052723 0.775249 189 211 208
0.516025 0.195754 0.792602 57 72 121
0.465864 0.337421 0.787762 47 52 65
0.541466 0.112070 0.783161 138 161 167
0.473770 0.321731 0.787631 172 165 131
0.561847 0.010335 0.757313 175 165 148
0.409325 0.445745 0.781194 143 128 152
0.388407 0.485469 0.770560 82 74 125
0.541697 0.118457 0.781644 147 176 188
0.394006 0.476395 0.772499 88 114 147
0.570522 -0.075617 0.727418 34 33 34
0.438804 0.396348 0.784584 138 153 168
0.401183 0.464767 0.774926 101 135 148
0.437918 0.399720 0.783508 109 97 126
0.539833 0.139412 0.779588 127 162 191
0.487097 0.306542 0.780542 115 118 107
0.475432 0.335194 0.779017 60 62 68
0.572478 -0.027113 0.734864 113 107 113
0.493794 0.294209 0.778997 125 121 115
0.424282 0.436869 0.773990 169 145 154
0.419644 0.446393 0.772032 65 56 104
0.480335 0.332890 0.774355 22 33 49
0.412857 0.461584 0.767270 86 106 140
0.580167 -0.074223 0.711701 40 38 38
0.580130 -0.056064 0.716739 57 44 45
0.580869 -0.046876 0.717150 54 43 45
0.419270 0.461177 0.761896 63 69 117
0.583361 -0.092315 0.700072 97 101 96
0.101484 0.519931 0.825113 144 156 147
0.105828 0.520010 0.825583 142 153 144
0.105828 0.520010 0.825583 142 153 144
0.109714 0.516905 0.827895 80 84 87
0.115969 0.517053 0.828412 72 79 67
0.115969 0.517053 0.828412 72 79 67
0.124094 0.520082 0.827260 112 123 130
0.135663 0.519972 0.828000 102 111 117
0.155440 0.488351 0.846130 44 48 90
0.362113 0.005360 0.927329 130 123 133
0.182068 0.487169 0.845966 44 48 99
0.291557 0.269837 0.917536 72 82 121
0.181047 0.495919 0.841249 93 103 119
0.272525 0.322721 0.905775 84 97 147
0.187717 0.486964 0.845697 38 44 93
0.295054 0.273861 0.915295 129 121 141
0.308425 0.240014 0.920471 127 121 133
0.277541 0.321882 0.904758 122 109 126
0.373341 0.018911 0.922056 53 43 44
0.377307 0.003656 0.919808 49 48 43
0.383609 -0.015205 0.915023 111 94 94
0.366703 0.067258 0.924470 99 92 98
0.341737 0.164747 0.924449 107 105 113
0.328359 0.205689 0.921635 102 92 101
0.321998 0.224184 0.919685 111 100 114
0.317051 0.240884 0.917262 121 114 118
0.311603 0.256741 0.914864 122 111 125
0.381092 0.024882 0.917979 69 69 79
0.344636 0.169408 0.922406 77 69 75
0.192955 0.516974 0.828125 92 84 134
0.361689 0.143657 0.919039 128 118 134
0.361689 0.143657 0.919039 128 118 134
0.319170 0.271978 0.907722 105 94 103
0.316641 0.286983 0.904009 109 100 110
0.403235 0.016921 0.905089 69 69 78
0.207091 0.516264 0.826868 77 77 122
0.377918 0.129860 0.912982 115 107 111
0.333272 0.266505 0.903872 93 83 93
0.333272 0.266505 0.903872 93 83 93
0.400749 0.041216 0.906841 72 65 65
0.298334 0.347534 0.888922 113 82 51
0.332887 0.275406 0.901347 100 87 94
0.332887 0.275406 0.901347 100 87 94
0.418719 -0.034469 0.891618 89 78 85
0.221127 0.503560 0.832273 123 161 182
0.262748 0.428297 0.863816 104 107 88
0.417331 0.012830 0.896109 54 49 56
0.311226 0.340727 0.887119 61 56 54
0.239227 0.483156 0.840432 44 50 103
0.255856 0.468887 0.844543 153 163 177
0.393010 0.160151 0.900913 90 91 96
0.440294 -0.029020 0.877051 127 113 117
0.288472 0.418143 0.861322 122 113 123
0.340618 0.328789 0.879899 31 73 58
0.372161 0.260878 0.887547 31 32 35
0.266992 0.479566 0.835566 59 56 98
0.415300 0.159337 0.888199 133 118 113
0.375944 0.283842 0.878212 48 51 52
0.460621 -0.009459 0.863334 73 57 62
0.465114 -0.032619 0.857218 126 115 117
0.382120 0.280473 0.875993 70 53 53
0.402799 0.217446 0.883181 129 152 156
0.448532 0.068125 0.876111 209 189 175
0.398144 0.265863 0.871461 56 66 66
0.286942 0.494243 0.820586 108 134 149
0.279538 0.509808 0.813605 81 72 120
0.279538 0.509808 0.813605 81 72 120
0.294855 0.484186 0.823704 36 52 68
0.323994 0.437935 0.837663 45 42 38
0.442887 0.160286 0.869846 101 77 73
0.442887 0.160286 0.869846 101 77 73
0.291779 0.503010 0.813408 47 35 58
0.496242 -0.043480 0.828393 94 112 114
0.495426 -0.034602 0.830558 33 39 44
0.496169 -0.028729 0.830506 75 86 94
0.451759 0.163623 0.862609 81 91 80
0.299256 0.505598 0.808828 73 65 114
0.299256 0.505598 0.808828 73 65 114
0.318123 0.471906 0.821443 52 47 108
0.456549 0.158964 0.859950 153 174 178
0.490797 0.035469 0.842366 203 180 170
0.490797 0.035469 0.842366 203 180 170
0.310170 0.496128 0.810183 96 122 155
0.454622 0.182723 0.856472 153 176 178
0.337989 0.454233 0.822198 153 158 184
0.462157 0.187079 0.849510 118 139 143
0.498611 0.057879 0.835307 202 217 209
0.482588 0.126691 0.843899 46 53 52
0.482588 0.126691 0.843899 46 53 52
0.331316 0.485733 0.806679 88 116 138
0.389331 0.379851 0.832643 70 104 150
0.480057 0.166451 0.839038 135 167 168
0.384026 0.402320 0.824682 68 96 134
0.503092 0.097316 0.828374 144 140 119
0.371202 0.435018 0.814579 19 23 31
0.355374 0.462593 0.808008 68 61 101
0.360265 0.458461 0.807674 158 139 164
0.407694 0.375234 0.822658 142 176 197
0.522042 0.054077 0.811423 211 224 222
0.533390 -0.005383 0.795157 220 236 228
0.403752 0.399990 0.812448 171 199 200
0.421776 0.367555 0.816058 98 133 170
0.412109 0.394582 0.809192 169 194 191
0.416777 0.393362 0.806164 162 191 196
0.498184 0.203015 0.811473 32 48 69
0.538862 0.072809 0.791132 166 179 160
0.538862 0.072809 0.791132 166 179 160
0.557425 -0.051374 0.752976 106 74 78
0.511326 0.188059 0.801725 90 122 143
0.470506 0.308333 0.797632 91 86 91
0.542291 0.078205 0.785861 172 203 200
0.460587 0.336312 0.793535 146 148 126
0.401206 0.447438 0.786570 142 126 139
0.391434 0.470104 0.778909 106 136 150
0.567933 -0.091445 0.726126 206 208 188
0.553682 0.058489 0.771907 180 196 187
0.473079 0.330531 0.783622 105 104 89
0.573680 -0.087852 0.718590 109 111 97
0.573956 -0.078859 0.721253 124 126 105
0.577678 -0.090655 0.710904 85 90 82
0.403059 0.477974 0.763900 84 72 114
0.504153 0.285636 0.770324 90 103 122
0.114917 0.486838 0.845031 199 211 214
0.124014 0.485998 0.846230 194 200 187
0.147854 0.503266 0.837960 131 154 172
0.179508 0.451326 0.865432 106 129 133
0.150142 0.510822 0.833720 118 139 144
0.343882 0.100602 0.932315 111 101 110
0.277355 0.311264 0.908452 86 95 130
0.216333 0.435594 0.869363 69 67 75
0.212181 0.443036 0.866217 182 194 180
0.222705 0.430556 0.870922 229 245 246
0.203928 0.469411 0.853761 151 169 186
0.315168 0.233134 0.919931 57 49 48
0.208073 0.464047 0.856070 43 49 49
0.208073 0.464047 0.856070 43 49 49
0.223015 0.435649 0.868322 93 106 95
0.322272 0.225426 0.919308 112 98 113
0.377134 0.057229 0.919614 105 97 104
0.232945 0.435354 0.866839 68 78 69
0.222760 0.461236 0.855547 145 159 183
0.210770 0.494848 0.838836 109 146 161
0.337299 0.279348 0.898268 61 59 62
0.306338 0.348752 0.885729 98 83 63
0.423661 0.003024 0.891352 77 73 78
0.341057 0.294047 0.891877 99 77 82
0.393385 0.200579 0.892487 142 174 190
0.446603 0.017006 0.876123 106 131 143
0.438995 0.053022 0.882624 186 170 157
0.292874 0.437077 0.850402 102 111 116
0.448769 0.063916 0.876086 206 189 167
0.435373 0.122162 0.881020 77 72 70
0.435373 0.122162 0.881020 77 72 70
0.449583 0.087938 0.874294 190 173 157
0.300889 0.458146 0.836298 128 149 173
0.405567 0.240627 0.875181 108 126 119
0.314931 0.443807 0.838480 155 142 160
0.294237 0.493199 0.818527 41 59 96
0.492582 -0.064712 0.826979 109 90 94
0.380881 0.336537 0.856301 34 74 54
0.329857 0.435070 0.836574 190 214 218
0.482597 0.027619 0.849351 208 191 176
0.344926 0.416226 0.839301 200 223 217
0.342086 0.431117 0.832770 162 180 186
0.342086 0.431117 0.832770 162 180 186
0.490449 0.021985 0.842037 210 184 175
0.418788 0.285641 0.851111 24 35 31
0.500653 0.001235 0.830985 212 229 225
0.498627 0.017287 0.834300 207 192 182
0.514111 -0.067254 0.803994 108 93 99
0.415803 0.308954 0.844429 30 43 29
0.403675 0.339055 0.840822 94 98 84
0.429113 0.284414 0.844117 18 23 23
0.469763 0.185172 0.843575 132 146 153
0.483261 0.144856 0.840152 151 170 171
0.488012 0.136346 0.837739 122 140 125
0.446706 0.271291 0.835242 71 76 72
0.446706 0.271291 0.835242 71 76 72
0.521146 0.002420 0.810209 225 241 231
0.478825 0.181100 0.836587 133 152 159
0.376518 0.425650 0.816670 18 46 71
0.504750 0.111060 0.825335 52 60 67
0.511153 0.089386 0.821043 155 141 127
0.387801 0.413589 0.816077 42 73 111
0.345418 0.492392 0.794769 46 46 58
0.534013 -0.021891 0.791939 200 185 168
0.460575 0.271976 0.823357 5 14 11
0.392980 0.413818 0.812413 71 107 160
0.378892 0.442022 0.805646 135 123 141
0.371834 0.455528 0.802273 144 125 153
0.399931 0.406106 0.811708 50 81 133
0.533507 0.035406 0.798286 218 233 233
0.419680 0.373870 0.814441 55 78 127
0.417131 0.380187 0.813104 159 186 197
0.409378 0.405616 0.805030 82 107 159
0.515320 0.143577 0.808727 151 179 189
0.515320 0.143577 0.808727 151 179 189
0.424755 0.388966 0.802103 167 194 196
0.553502 -0.006260 0.768642 198 217 199
0.467262 0.326980 0.791709 159 153 136
0.406103 0.457893 0.775653 108 145 171
0.449492 0.387344 0.779537 64 84 105
0.417581 0.457640 0.765653 35 36 66
0.093685 0.523829 0.821800 57 72 112
0.361428 0.022231 0.927990 126 115 122
0.352180 0.069511 0.931165 83 81 93
0.204834 0.455382 0.860977 198 201 195
0.361674 0.095637 0.924818 88 90 95
0.219958 0.471462 0.850471 124 121 134
0.236303 0.443773 0.862068 38 51 64
0.411692 -0.045187 0.895129 99 79 76
0.301889 0.335185 0.892470 103 97 83
0.428585 -0.031287 0.885332 112 100 111
0.386380 0.170040 0.902531 158 180 186
0.296959 0.401023 0.866600 222 241 237
0.404556 0.162647 0.894008 138 125 124
0.450238 -0.001049 0.872142 76 67 73
0.402178 0.182277 0.891761 131 151 158
0.471247 -0.057678 0.848056 115 99 105
0.470628 -0.025375 0.853730 70 68 82
0.475791 -0.019830 0.849981 101 118 131
0.450578 0.102438 0.872343 179 171 168
0.435897 0.164074 0.874014 141 128 120
0.430058 0.185718 0.873615 66 73 68
0.402056 0.272089 0.867031 74 83 79
0.402056 0.272089 0.867031 74 83 79
0.433455 0.198215 0.868468 127 140 148
0.303097 0.490503 0.816672 77 103 130
0.470363 0.091479 0.858230 172 165 160
0.449636 0.165282 0.863998 95 94 87
0.421402 0.275897 0.852842 50 64 62
0.395115 0.340995 0.845623 40 78 70
0.321954 0.479564 0.815119 25 48 78
0.320499 0.485327 0.812242 88 115 134
0.496620 0.062311 0.836866 187 196 190
0.506732 0.027569 0.826967 229 239 238
0.514953 0.006209 0.817285 223 240 230
0.516338 0.032909 0.817592 216 237 234
0.399842 0.378446 0.826552 123 157 206
0.460459 0.265590 0.825890 95 95 86
0.405321 0.382390 0.820750 50 71 121
0.405321 0.382390 0.820750 50 71 121
0.548739 -0.063460 0.762664 116 103 106
0.550035 -0.076647 0.756906 98 85 92
0.541808 0.042871 0.788120 194 210 207
0.527461 0.114934 0.800071 156 177 169
0.492109 0.291568 0.781941 59 54 58
0.582100 -0.080342 0.706800 143 149 119
0.150618 0.484960 0.848067 174 192 220
0.196411 0.453911 0.862581 27 32 33
0.372730 -0.036708 0.919222 100 84 95
0.372730 -0.036708 0.919222 100 84 95
0.396299 0.020127 0.909550 65 58 64
0.311728 0.327491 0.891912 162 167 162
0.318396 0.340528 0.884543 45 69 55
0.246215 0.492469 0.833622 118 150 183
0.335531 0.323741 0.883963 178 154 116
0.339949 0.339618 0.876018 95 131 120
0.356402 0.331213 0.871521 28 72 54
0.416706 0.186981 0.881967 136 153 151
0.389520 0.279026 0.872221 38 36 27
0.376984 0.347990 0.853569 81 121 104
0.470419 0.090888 0.858125 174 167 159
0.318630 0.464994 0.825216 137 132 161
0.314915 0.474857 0.821110 44 46 88
0.463106 0.135381 0.858911 141 154 153
0.421242 0.275911 0.852918 58 70 65
0.419251 0.291729 0.848512 141 148 142
0.452167 0.200481 0.853951 61 62 60
0.335720 0.457989 0.821174 139 139 165
0.496935 0.063131 0.836868 190 203 186
0.498709 0.089343 0.833432 149 162 156
0.453714 0.260725 0.833507 18 20 19
0.489259 0.209138 0.818132 67 67 91
0.489259 0.209138 0.818132 67 67 91
0.472971 0.261797 0.815744 64 72 83
0.553508 -0.020403 0.764101 70 68 60
0.412511 0.437366 0.783745 103 94 105
0.480773 0.312460 0.784691 53 46 52
0.480773 0.312460 0.784691 53 46 52
0.572272 -0.056246 0.729723 110 101 107
-0.023810 0.347189 0.867634 147 164 192
-0.023810 0.347189 0.867634 147 164 192
0.155510 0.491199 0.844642 42 53 87
0.224462 0.453474 0.859282 23 18 24
0.432467 0.105014 0.884743 170 147 132
0.357490 0.343303 0.866194 100 137 119
0.461595 0.060115 0.866637 179 171 174
0.372897 0.329395 0.863587 48 45 37
0.490660 -0.058591 0.830505 114 95 96
0.377507 0.348037 0.853322 80 124 110
0.482488 0.047653 0.849785 193 197 205
0.440994 0.224941 0.855806 103 116 108
0.496575 0.029195 0.836892 195 178 173
0.405072 0.374522 0.824924 110 135 167
0.405072 0.374522 0.824924 110 135 167
0.537910 -0.070808 0.775269 106 96 95
0.392740 0.432322 0.801723 110 102 114
0.500272 0.182726 0.815417 114 149 173
0.517414 0.169462 0.800093 112 151 182
0.563560 -0.001874 0.752581 80 68 69
0.570780 -0.026050 0.737580 118 103 108
0.570780 -0.026050 0.737580 118 103 108
0.528891 0.206154 0.772073 50 50 55
0.115112 0.495529 0.840428 53 70 110
0.208514 0.454128 0.861246 200 212 210
0.208514 0.454128 0.861246 200 212 210
