ply
format ascii 1.0
element vertex 738
property float x
property float y
property float z
property uchar diffuse_red
property uchar diffuse_green
property uchar diffuse_blue
end_header
0.147222 0.276655 0.904734 97 87 86
0.142187 0.277865 0.905839 106 95 99
0.088457 0.294767 0.896016 104 97 108
0.088571 0.294723 0.895207 105 103 109
0.162772 0.273633 0.897637 85 69 71
0.098218 0.294344 0.890816 118 104 120
0.101967 0.295024 0.884744 115 104 108
0.102641 0.294981 0.883587 73 65 79
0.158528 0.280137 0.887778 70 65 72
0.169946 0.277657 0.882510 47 50 60
0.169946 0.277657 0.882510 47 50 60
0.172092 0.277038 0.881800 104 95 106
0.165101 0.279675 0.882528 127 111 120
0.197223 0.271490 0.867775 129 120 131
0.191500 0.272862 0.870732 83 70 79
0.196659 0.272109 0.866713 119 110 119
0.196659 0.272109 0.866713 119 110 119
0.116268 0.294799 0.873474 69 60 83
0.163878 0.281824 0.878042 124 108 114
0.192463 0.274616 0.865726 63 54 69
0.167668 0.281637 0.874735 66 64 66
0.218242 0.267674 0.850439 117 115 118
0.184958 0.277511 0.867041 59 62 65
0.210064 0.270410 0.854283 87 80 92
0.204332 0.272212 0.857045 81 77 88
0.204332 0.272212 0.857045 81 77 88
0.179694 0.279553 0.867287 71 65 72
0.126064 0.294062 0.868805 103 90 98
0.173051 0.281528 0.869108 122 110 114
0.179175 0.280397 0.865679 119 107 107
0.179175 0.280397 0.865679 119 107 107
0.175393 0.281914 0.866344 66 55 73
0.210401 0.271843 0.850200 83 80 91
0.131156 0.294679 0.858146 95 85 83
0.197357 0.276669 0.854043 115 104 106
0.215134 0.271786 0.844087 80 67 84
0.135642 0.294116 0.859022 91 82 87
0.227006 0.268891 0.835055 94 75 86
0.221821 0.271035 0.836402 53 50 70
0.217049 0.272960 0.837945 74 64 72
0.215748 0.273423 0.838408 112 104 110
0.243624 0.265144 0.819386 92 82 84
0.233553 0.268676 0.824716 42 47 54
0.218438 0.273489 0.834108 68 63 68
0.225211 0.271725 0.829163 106 99 102
0.225211 0.271725 0.829163 106 99 102
0.223703 0.272837 0.828524 108 94 95
0.148939 0.293798 0.842826 87 80 82
0.229241 0.271429 0.823484 64 63 69
0.229241 0.271429 0.823484 64 63 69
0.236379 0.269457 0.818151 129 112 118
0.249374 0.265265 0.808576 90 74 80
0.253053 0.264880 0.802694 79 76 80
0.176399 0.288203 0.842799 156 173 184
0.174249 0.288976 0.840261 116 135 143
0.235193 0.271758 0.813113 104 123 130
0.180739 0.287904 0.838165 163 174 182
0.179750 0.288174 0.837946 103 120 117
0.265273 0.261607 0.790311 90 82 90
0.188259 0.286042 0.836861 142 132 130
0.278640 0.257052 0.776829 133 120 126
0.182396 0.288385 0.832862 101 121 129
0.180803 0.288889 0.831931 135 167 179
0.183723 0.288033 0.832637 146 167 179
0.266162 0.262747 0.784617 76 69 71
0.191631 0.286485 0.828783 69 64 69
0.189089 0.287341 0.828308 152 169 172
0.195261 0.285643 0.827382 123 119 121
0.279157 0.258106 0.772707 125 114 119
0.190255 0.287827 0.822731 138 162 170
0.191701 0.287504 0.822241 75 90 95
0.191701 0.287504 0.822241 75 90 95
0.288408 0.255468 0.760017 131 125 128
0.279890 0.259082 0.767362 84 71 85
0.212516 0.282024 0.815894 141 117 113
0.210106 0.283018 0.815126 147 135 118
0.290577 0.255379 0.755503 96 84 93
0.209873 0.283714 0.811775 127 112 109
0.273944 0.262312 0.769486 61 74 86
0.211121 0.283746 0.809538 61 53 56
0.199647 0.287146 0.810064 116 129 131
0.212724 0.283706 0.806884 118 106 99
0.208057 0.285207 0.806754 69 68 55
0.205485 0.286017 0.805552 79 86 85
0.221362 0.281400 0.802100 172 177 178
0.218853 0.282516 0.801445 121 118 119
0.217118 0.283374 0.799750 127 124 124
0.195545 0.289428 0.790243 68 74 67
0.214083 0.284671 0.797288 64 65 59
0.211627 0.285249 0.797694 150 168 165
0.197358 0.289122 0.784747 40 41 42
0.222864 0.282880 0.789558 88 75 67
0.246058 0.275999 0.778093 199 212 210
0.246058 0.275999 0.778093 199 212 210
0.216911 0.285170 0.785092 126 152 156
0.247582 0.275905 0.775152 87 92 78
0.238171 0.279434 0.776320 165 177 182
0.212546 0.286727 0.774906 98 110 105
0.222531 0.284141 0.777165 107 126 125
0.229133 0.282722 0.773215 157 172 176
0.245220 0.277905 0.768050 64 65 62
0.245220 0.277905 0.768050 64 65 62
0.241568 0.279107 0.769623 149 167 169
0.234478 0.281305 0.771067 77 62 62
0.231456 0.282272 0.770987 32 35 42
0.269261 0.269597 0.754043 192 182 167
0.219496 0.285579 0.768375 108 124 115
0.249998 0.276589 0.763942 76 72 71
0.249998 0.276589 0.763942 76 72 71
0.244226 0.278578 0.765826 111 115 114
0.248639 0.277062 0.763936 81 87 78
0.248639 0.277062 0.763936 81 87 78
0.255797 0.274877 0.759421 154 163 152
0.250808 0.276628 0.761639 160 172 178
0.250808 0.276628 0.761639 160 172 178
0.225100 0.284331 0.764299 109 131 128
0.251590 0.276600 0.759598 101 101 90
0.299351 0.258203 0.724890 160 149 148
0.224199 0.284802 0.759768 33 43 41
0.243345 0.279460 0.760020 107 118 110
0.243345 0.279460 0.760020 107 118 110
0.243345 0.279460 0.760020 107 118 110
0.234364 0.282169 0.761257 106 117 105
0.255000 0.275836 0.754964 83 83 80
0.263896 0.272721 0.750450 187 205 207
0.250965 0.277235 0.756345 155 174 170
0.234531 0.282235 0.759062 125 130 122
0.274239 0.268973 0.742490 140 116 116
0.274239 0.268973 0.742490 140 116 116
0.229252 0.283784 0.755173 43 47 48
0.276913 0.268457 0.739362 164 150 143
0.266924 0.272044 0.745218 173 189 182
0.218238 0.285569 0.743112 36 39 40
0.263429 0.273387 0.746546 129 147 136
0.238684 0.281430 0.753395 118 119 110
0.238684 0.281430 0.753395 118 119 110
0.310019 0.254638 0.708561 237 255 253
0.220122 0.285353 0.740788 84 85 69
0.244138 0.280162 0.748789 111 112 113
0.233500 0.282993 0.747736 90 92 87
0.282052 0.267121 0.730539 85 88 83
0.282052 0.267121 0.730539 85 88 83
0.266163 0.273129 0.740564 148 171 166
0.237279 0.282253 0.747010 48 49 53
0.244729 0.280123 0.746200 53 58 58
0.262496 0.274757 0.739415 148 169 162
0.302529 0.258882 0.711362 190 201 182
0.307020 0.257048 0.707042 219 233 229
0.243491 0.280565 0.742655 86 69 57
0.253898 0.277563 0.741345 104 124 117
0.246985 0.279720 0.741698 114 112 109
0.231103 0.283455 0.734979 62 66 62
0.270729 0.272049 0.732623 40 46 43
0.258841 0.276127 0.737786 153 166 168
0.315514 0.253413 0.696953 135 147 151
0.250762 0.278730 0.739015 34 33 41
0.271630 0.271892 0.730436 167 187 184
0.239406 0.281891 0.735975 26 27 35
0.285001 0.267118 0.719994 179 200 196
0.258547 0.276576 0.732815 33 43 53
0.258547 0.276576 0.732815 33 43 53
0.253268 0.278236 0.734001 52 42 45
0.289542 0.265404 0.715298 140 150 140
0.243083 0.281130 0.730697 41 36 37
0.329530 0.247533 0.676662 214 231 221
0.292184 0.264533 0.712142 180 194 193
0.283992 0.267824 0.717873 77 75 67
0.283992 0.267824 0.717873 77 75 67
0.288092 0.266331 0.714482 166 176 168
0.287066 0.266671 0.715036 58 53 53
0.287066 0.266671 0.715036 58 53 53
0.270652 0.272842 0.724717 159 175 173
0.258321 0.277058 0.728156 135 145 154
0.254751 0.277894 0.727626 51 45 52
0.297761 0.262567 0.705335 200 220 218
0.295681 0.263476 0.706456 191 206 204
0.295681 0.263476 0.706456 191 206 204
0.267507 0.274133 0.722856 139 160 154
0.266719 0.274458 0.722723 121 135 136
0.271230 0.272914 0.720878 149 169 168
0.259024 0.276901 0.724396 127 120 111
0.293540 0.264401 0.707465 146 151 145
0.264464 0.275167 0.722396 107 131 132
0.249718 0.279537 0.721550 62 60 63
0.295862 0.263775 0.704414 68 65 58
0.273807 0.272133 0.717812 131 143 131
0.336995 0.244245 0.663248 174 167 159
0.251950 0.279137 0.720601 23 22 34
0.251950 0.279137 0.720601 23 22 34
0.328310 0.248933 0.673395 227 244 237
0.253901 0.279100 0.719480 76 63 65
0.298308 0.262839 0.700573 184 189 182
0.272227 0.272948 0.715528 151 172 174
0.308561 0.258657 0.691758 178 189 176
0.250584 0.279660 0.716669 18 20 25
0.288800 0.266901 0.706132 47 51 63
0.288800 0.266901 0.706132 47 51 63
0.288800 0.266901 0.706132 47 51 63
0.245654 0.280154 0.711414 36 43 46
0.286848 0.267616 0.705752 82 87 81
0.264521 0.275594 0.714502 69 67 71
0.309733 0.258191 0.688514 175 187 175
0.265837 0.275234 0.713711 116 135 136
0.265837 0.275234 0.713711 116 135 136
0.262883 0.276015 0.713847 98 89 91
0.300038 0.262664 0.694761 127 103 92
0.277058 0.271597 0.707823 122 148 140
0.277058 0.271597 0.707823 122 148 140
0.277873 0.271598 0.704971 67 75 71
0.277873 0.271598 0.704971 67 75 71
0.286940 0.268186 0.700007 115 129 127
0.315599 0.256175 0.678511 199 218 209
0.284442 0.269308 0.698599 156 176 179
0.312476 0.257846 0.678821 61 64 51
0.312476 0.257846 0.678821 61 64 51
0.327408 0.250791 0.664568 214 233 231
0.273954 0.272927 0.700850 121 155 160
0.254092 0.278136 0.697567 84 91 75
0.253667 0.278147 0.697034 71 71 65
0.300140 0.263350 0.686482 161 179 178
0.272969 0.273350 0.699301 49 57 74
0.268562 0.274632 0.699964 78 73 83
0.287129 0.268551 0.692854 69 78 78
0.287129 0.268551 0.692854 69 78 78
0.274683 0.272819 0.697220 127 150 167
0.306470 0.260807 0.680240 153 168 149
0.273050 0.273365 0.697210 33 45 66
0.278571 0.271540 0.695569 134 160 173
0.256895 0.277271 0.693017 72 77 73
0.256153 0.277447 0.692089 111 108 100
0.289363 0.267830 0.690058 168 191 185
0.283371 0.269959 0.692495 135 169 176
0.300778 0.263439 0.681926 123 144 130
0.289519 0.267874 0.687557 154 185 185
0.316173 0.256562 0.669131 96 100 97
0.316173 0.256562 0.669131 96 100 97
0.293915 0.266399 0.682699 155 182 182
0.261021 0.276163 0.684760 46 51 64
0.275146 0.272888 0.686537 19 34 58
0.275146 0.272888 0.686537 19 34 58
0.331922 0.249439 0.651053 187 196 176
0.325341 0.252924 0.656562 184 204 196
0.334149 0.248589 0.647165 210 231 225
0.291277 0.267541 0.678431 157 176 184
0.288095 0.268704 0.679926 136 172 186
0.338578 0.246277 0.641291 117 116 110
0.338578 0.246277 0.641291 117 116 110
0.304468 0.262469 0.670023 171 184 178
0.324465 0.253520 0.654348 171 180 166
0.300145 0.264242 0.671681 160 179 181
0.283357 0.270291 0.677619 130 159 187
0.283357 0.270291 0.677619 130 159 187
0.317619 0.256847 0.657845 184 206 203
0.284504 0.269908 0.674393 49 64 88
0.306663 0.261689 0.664384 162 184 180
0.308740 0.260876 0.662871 177 196 188
0.324280 0.253938 0.650502 189 212 204
0.259197 0.274965 0.663034 51 47 58
0.260014 0.274768 0.663615 52 53 54
0.311145 0.260020 0.659701 133 146 129
0.310569 0.260266 0.658978 167 193 186
0.334806 0.249041 0.637420 210 225 224
0.309072 0.260889 0.657706 122 138 145
0.289881 0.268093 0.667037 90 122 147
0.263373 0.273648 0.654993 59 52 60
0.288322 0.268641 0.661207 65 78 115
0.332218 0.250643 0.634531 165 181 170
0.310833 0.260354 0.651290 47 48 63
0.310833 0.260354 0.651290 47 48 63
0.324026 0.254614 0.640680 163 182 171
0.298873 0.265073 0.653811 88 121 155
0.295999 0.265982 0.653946 37 54 81
0.312823 0.259676 0.645733 147 174 179
0.305756 0.262493 0.648830 84 115 143
0.296799 0.265777 0.651645 99 117 161
0.296799 0.265777 0.651645 99 117 161
0.325056 0.254235 0.636547 163 174 176
0.314762 0.258865 0.643839 58 63 88
0.267700 0.272058 0.644367 79 67 66
0.269143 0.271919 0.645353 45 45 51
0.291833 0.266754 0.650333 25 31 45
0.327182 0.253391 0.632506 131 144 142
0.272271 0.271370 0.644508 41 43 50
0.278553 0.270482 0.645361 79 68 74
0.333342 0.250620 0.624188 164 178 177
0.279777 0.270016 0.642640 38 39 59
0.308425 0.261340 0.640429 132 156 171
0.308570 0.261433 0.638219 34 64 116
0.271974 0.270081 0.632989 111 113 100
0.323915 0.255045 0.628258 130 124 121
0.321322 0.256205 0.628360 57 62 89
0.320749 0.256567 0.625983 104 129 137
0.129996 0.278325 0.913816 113 99 101
0.166543 0.274647 0.892450 111 100 104
0.095242 0.294864 0.889651 109 95 108
0.166447 0.276072 0.889171 119 111 123
0.172066 0.274986 0.886264 85 74 81
0.178220 0.274426 0.881565 114 105 108
0.161722 0.278991 0.887514 104 91 100
0.199256 0.269145 0.870121 115 114 123
0.182612 0.274277 0.877276 80 76 86
0.182612 0.274277 0.877276 80 76 86
0.197296 0.270176 0.870335 84 68 71
0.110033 0.294915 0.880021 112 103 108
0.162949 0.280136 0.883342 79 64 74
0.160176 0.281202 0.883141 111 102 108
0.178900 0.277041 0.874956 64 59 66
0.172973 0.278598 0.877145 133 124 124
0.192515 0.273441 0.868597 112 109 113
0.170057 0.279761 0.877238 122 112 113
0.183846 0.276146 0.871860 100 91 100
0.198150 0.274645 0.858758 87 72 75
0.191149 0.277279 0.860076 67 59 71
0.203537 0.275293 0.850168 132 125 127
0.197229 0.277240 0.852620 70 67 80
0.202903 0.275691 0.849941 82 67 76
0.201889 0.276486 0.849097 114 106 113
0.224567 0.269796 0.836003 83 72 76
0.233271 0.268130 0.827306 75 69 70
0.142947 0.294313 0.846551 64 53 54
0.210976 0.275645 0.838612 71 66 75
0.213063 0.275671 0.835603 109 100 106
0.241279 0.266726 0.818418 89 77 89
0.151686 0.294287 0.833467 61 51 53
0.173902 0.287999 0.846981 54 64 81
0.241713 0.268171 0.813096 68 64 70
0.231893 0.271363 0.819386 90 91 103
0.154829 0.293881 0.831418 85 78 76
0.212805 0.277817 0.830353 47 51 61
0.187521 0.285158 0.841519 159 141 137
0.186563 0.285448 0.841556 123 104 108
0.183266 0.287915 0.834378 153 171 181
0.180457 0.289447 0.829028 139 168 182
0.270447 0.261405 0.779966 128 118 118
0.188740 0.287534 0.827325 142 161 169
0.194738 0.286725 0.821976 128 146 143
0.204229 0.283995 0.820095 109 89 84
0.202639 0.284665 0.820011 128 120 112
0.202360 0.285105 0.818346 143 141 137
0.189144 0.289425 0.811476 121 136 138
0.208366 0.284239 0.811643 127 109 107
0.208811 0.284747 0.807532 96 77 82
0.208811 0.284747 0.807532 96 77 82
0.218061 0.282100 0.805408 74 68 72
0.181820 0.291431 0.791927 116 101 73
0.211723 0.284168 0.805163 113 99 95
0.211439 0.284753 0.803385 113 100 101
0.271532 0.264562 0.769010 204 213 190
0.294656 0.255822 0.745199 76 71 68
0.212886 0.284532 0.800467 54 53 52
0.221002 0.282179 0.798225 68 61 67
0.236167 0.277803 0.790871 72 68 65
0.206392 0.286828 0.795859 125 145 147
0.229740 0.280078 0.792270 162 177 176
0.209678 0.286059 0.794790 112 128 129
0.247441 0.275367 0.778182 179 189 183
0.216852 0.284963 0.787133 138 160 163
0.202702 0.288493 0.779341 34 42 42
0.284133 0.261886 0.750417 222 223 215
0.243562 0.276835 0.779181 172 187 184
0.250702 0.274641 0.774736 90 79 82
0.250702 0.274641 0.774736 90 79 82
0.288227 0.260594 0.745332 144 150 147
0.253382 0.274063 0.770515 163 153 154
0.239201 0.278929 0.777086 156 178 178
0.209948 0.287296 0.776848 53 51 58
0.222226 0.284235 0.779265 103 120 112
0.256850 0.273297 0.766913 156 131 122
0.253719 0.274286 0.768731 53 47 41
0.302717 0.254903 0.727533 210 195 180
0.241228 0.278658 0.773513 84 85 82
0.241228 0.278658 0.773513 84 85 82
0.244468 0.277909 0.770185 147 163 168
0.243052 0.278505 0.769745 147 175 169
0.246595 0.277462 0.767521 149 168 173
0.283797 0.264028 0.742828 195 170 171
0.324067 0.245974 0.700697 62 72 80
0.324067 0.245974 0.700697 62 72 80
0.284249 0.263971 0.741261 208 206 211
0.284249 0.263971 0.741261 208 206 211
0.251856 0.276042 0.762675 150 167 166
0.274654 0.268147 0.747379 193 174 165
0.306971 0.254506 0.717916 167 178 182
0.243301 0.279198 0.763325 111 119 113
0.274657 0.268345 0.745701 154 129 126
0.315776 0.250863 0.705571 195 177 163
0.289455 0.262760 0.732554 137 136 134
0.231111 0.283274 0.759216 115 131 128
0.296311 0.260030 0.725388 208 203 195
0.296311 0.260030 0.725388 208 203 195
0.289438 0.263043 0.730958 114 106 108
0.280686 0.266569 0.738120 196 191 174
0.292020 0.262031 0.728399 213 215 203
0.236750 0.281721 0.756792 40 43 47
0.276453 0.268200 0.739770 163 153 144
0.307728 0.255285 0.712950 134 131 112
0.286178 0.264612 0.732736 65 65 66
0.286178 0.264612 0.732736 65 65 66
0.220944 0.285413 0.748138 34 40 40
0.283522 0.265724 0.734225 91 88 85
0.283522 0.265724 0.734225 91 88 85
0.216068 0.285763 0.741359 66 73 65
0.236538 0.282098 0.752195 39 44 46
0.228769 0.283968 0.749894 28 29 31
0.231410 0.283384 0.749861 38 38 41
0.271686 0.270889 0.738194 76 62 61
0.271686 0.270889 0.738194 76 62 61
0.247988 0.278978 0.748129 108 124 121
0.298551 0.260316 0.717135 193 205 185
0.270438 0.271559 0.737850 59 59 56
0.253092 0.277540 0.743976 158 173 173
0.278318 0.268883 0.730711 164 179 174
0.283774 0.267227 0.723823 164 182 176
0.314337 0.254112 0.697142 117 119 117
0.282583 0.267799 0.723804 171 181 180
0.282583 0.267799 0.723804 171 181 180
0.283071 0.267751 0.721979 76 81 72
0.251724 0.278730 0.734961 124 120 112
0.276212 0.270490 0.725460 130 144 134
0.263066 0.275125 0.731646 145 171 175
0.283043 0.267951 0.720515 144 148 144
0.283043 0.267951 0.720515 144 148 144
0.253083 0.278489 0.730624 103 92 90
0.256405 0.277482 0.729351 42 42 54
0.285177 0.267533 0.715349 74 69 68
0.250625 0.279287 0.726936 76 77 74
0.318257 0.253360 0.686727 198 210 202
0.285783 0.267555 0.712577 114 114 98
0.289162 0.266400 0.709002 139 127 119
0.276624 0.271217 0.715803 123 142 125
0.287929 0.267257 0.705883 62 64 63
0.329917 0.248438 0.669198 121 124 106
0.268300 0.274507 0.710718 58 69 65
0.288409 0.267612 0.700167 118 129 120
0.291297 0.266429 0.698063 121 127 113
0.317197 0.255419 0.677086 184 201 186
0.291074 0.266655 0.696526 166 184 181
0.291074 0.266655 0.696526 166 184 181
0.313874 0.256976 0.679224 177 191 169
0.297837 0.264068 0.690723 165 184 180
0.310403 0.258632 0.681171 190 205 194
0.267512 0.274943 0.702574 26 33 41
0.254235 0.278090 0.698526 25 39 28
0.251837 0.278491 0.696997 102 100 91
0.271117 0.273641 0.700535 97 97 101
0.287141 0.268407 0.694328 159 184 188
0.290526 0.267227 0.691773 151 177 176
0.283619 0.269819 0.694967 124 139 139
0.333022 0.248374 0.655122 193 204 185
0.303588 0.262253 0.679368 52 49 44
0.303588 0.262253 0.679368 52 49 44
0.286155 0.268947 0.689114 116 141 140
0.286155 0.268947 0.689114 116 141 140
0.259238 0.276672 0.687916 89 88 92
0.258917 0.276551 0.685945 25 46 70
0.307936 0.260507 0.674061 179 202 197
0.261134 0.275829 0.682813 46 61 81
0.298183 0.264978 0.674139 50 54 72
0.298183 0.264978 0.674139 50 54 72
0.279712 0.271220 0.679103 72 101 123
0.279537 0.271417 0.675699 61 85 114
0.257149 0.275186 0.663386 68 59 62
0.314875 0.258277 0.657680 170 199 186
0.260315 0.274993 0.664191 73 71 78
0.283430 0.270133 0.671214 64 100 132
0.315093 0.258511 0.651746 120 131 118
0.315093 0.258511 0.651746 120 131 118
0.313798 0.259135 0.651224 117 129 129
0.309599 0.260857 0.651611 139 169 178
0.293663 0.266769 0.657432 87 125 161
0.341304 0.246173 0.623461 197 212 207
0.265322 0.272390 0.645457 62 50 63
0.264255 0.271704 0.641023 47 52 65
0.317446 0.257785 0.638398 43 54 73
0.273625 0.270991 0.642143 76 72 76
0.323129 0.255396 0.631011 93 93 94
0.333699 0.250394 0.621920 68 70 75
0.333699 0.250394 0.621920 68 70 75
0.311403 0.260302 0.635855 41 59 92
0.311403 0.260302 0.635855 41 59 92
0.274284 0.270276 0.635333 49 49 49
0.280983 0.269443 0.638541 44 43 56
0.323019 0.255619 0.627585 54 56 64
0.274894 0.269830 0.633329 114 114 104
0.282625 0.268835 0.636263 87 66 77
0.272316 0.269196 0.625725 158 149 121
0.279990 0.268914 0.628218 71 60 70
0.277099 0.268251 0.620484 112 122 113
0.111989 0.277796 0.925597 131 129 135
0.080891 0.293941 0.902322 128 113 124
0.143774 0.275841 0.908252 54 49 49
0.171013 0.273913 0.889849 89 77 76
0.171013 0.273913 0.889849 89 77 76
0.160058 0.276963 0.893733 72 64 71
0.100256 0.294565 0.887685 116 105 114
0.155340 0.279198 0.892398 70 62 71
0.181429 0.273184 0.880821 85 71 76
0.181429 0.273184 0.880821 85 71 76
0.181429 0.273184 0.880821 85 71 76
0.173554 0.276072 0.882638 72 65 72
0.108164 0.295195 0.878210 85 61 68
0.176924 0.279121 0.871664 75 67 68
0.192138 0.275471 0.863612 120 108 114
0.122795 0.295286 0.862288 69 61 59
0.173646 0.282153 0.866716 109 89 100
0.186902 0.279495 0.859013 114 103 107
0.221952 0.270574 0.837514 144 136 139
0.203930 0.277337 0.843495 70 62 70
0.151988 0.293597 0.840353 56 52 58
0.211102 0.278825 0.830998 188 173 158
0.178177 0.288807 0.837079 149 177 194
0.191520 0.285287 0.834959 134 122 118
0.173040 0.291900 0.819992 56 63 73
0.276160 0.259255 0.774657 93 82 84
0.195910 0.285979 0.824937 130 111 105
0.272342 0.261200 0.776059 57 63 72
0.281788 0.258061 0.766650 126 115 117
0.216052 0.281649 0.811631 176 181 179
0.197416 0.287568 0.811088 144 164 174
0.220726 0.280890 0.806701 80 74 75
0.220726 0.280890 0.806701 80 74 75
0.209808 0.285190 0.802757 129 144 155
0.206222 0.286529 0.799511 130 157 159
0.208325 0.286135 0.798691 116 135 133
0.235395 0.278226 0.790457 183 197 197
0.216357 0.283802 0.796609 112 93 92
0.216746 0.284571 0.791323 138 161 162
0.211927 0.285826 0.789664 127 153 158
0.211927 0.285826 0.789664 127 153 158
0.235425 0.279766 0.780496 47 50 52
0.207869 0.287649 0.772751 16 21 21
0.209707 0.287456 0.768372 50 62 64
0.313657 0.250499 0.713251 80 86 98
0.225316 0.283877 0.774597 131 154 152
0.311565 0.252216 0.712937 190 185 176
0.322969 0.247169 0.698459 56 65 64
0.216803 0.286095 0.754875 82 84 81
0.227778 0.283831 0.761535 120 137 137
0.255874 0.275394 0.755285 150 168 167
0.227861 0.283970 0.758197 97 108 102
0.236142 0.282124 0.755068 49 42 49
0.236142 0.282124 0.755068 49 42 49
0.282517 0.266500 0.734217 124 116 116
0.276521 0.268805 0.737150 56 58 67
0.276521 0.268805 0.737150 56 58 67
0.257381 0.276631 0.737549 147 166 168
0.273700 0.271073 0.729847 136 151 151
0.243225 0.280962 0.736055 66 59 57
0.249576 0.279268 0.735389 77 58 59
0.329018 0.247680 0.678276 214 229 216
0.307012 0.258259 0.699807 103 105 108
0.307012 0.258259 0.699807 103 105 108
0.273119 0.272030 0.722341 135 143 139
0.320320 0.252228 0.685288 229 240 237
0.240066 0.281488 0.721068 9 19 19
0.276309 0.271002 0.718794 161 178 174
0.298640 0.262428 0.702811 69 77 73
0.298640 0.262428 0.702811 69 77 73
0.279205 0.270142 0.715678 124 132 116
0.295917 0.263748 0.703081 70 60 59
0.295917 0.263748 0.703081 70 60 59
0.296227 0.264100 0.698139 118 89 81
0.299177 0.263153 0.694119 158 145 130
0.283025 0.269660 0.701403 151 175 183
0.244543 0.279594 0.696174 70 61 65
0.258831 0.277169 0.703045 21 25 34
0.258831 0.277169 0.703045 21 25 34
0.325000 0.251812 0.667773 115 120 107
0.316887 0.255670 0.675087 177 189 166
0.286923 0.268371 0.696573 104 117 111
0.302615 0.262127 0.686182 176 198 188
0.270710 0.273876 0.699287 83 79 95
0.254988 0.277790 0.692390 14 14 22
0.318473 0.255620 0.667911 73 77 70
0.276817 0.272328 0.687997 28 36 62
0.297533 0.265162 0.679683 123 134 128
0.308490 0.260525 0.671046 59 61 66
0.308490 0.260525 0.671046 59 61 66
0.281365 0.271010 0.680106 38 54 75
0.260741 0.274911 0.665534 46 46 50
0.332779 0.249910 0.640140 56 56 64
0.292314 0.267370 0.663610 111 141 179
0.259817 0.273229 0.650421 148 151 131
0.323583 0.254748 0.642935 65 82 75
0.309454 0.260993 0.651723 144 175 182
0.262848 0.272603 0.646352 74 76 64
0.334880 0.249322 0.630984 189 211 208
0.288991 0.267746 0.656422 57 72 121
0.264299 0.271710 0.640977 47 52 65
0.316082 0.258389 0.643102 138 161 167
0.266937 0.271648 0.642127 172 165 131
0.315248 0.258729 0.641172 147 176 188
0.310677 0.260709 0.638733 127 162 191
0.273868 0.269883 0.632868 115 118 107
0.270829 0.269641 0.627748 60 62 68
0.276799 0.269496 0.631741 125 121 115
0.273568 0.268498 0.621216 22 33 49
0.112199 0.277697 0.925539 130 123 133
0.072394 0.295322 0.900627 84 97 147
0.078440 0.295237 0.896501 122 109 126
0.133655 0.278727 0.910656 53 43 44
0.140081 0.277896 0.908801 49 48 43
0.153317 0.275143 0.902295 111 94 94
0.146663 0.279131 0.900168 69 69 79
0.109462 0.295133 0.878662 109 100 110
0.183043 0.276599 0.871195 69 69 78
0.177019 0.279123 0.871608 72 65 65
0.124245 0.294527 0.867995 100 87 94
0.124245 0.294527 0.867995 100 87 94
0.218075 0.268542 0.848132 89 78 85
0.204831 0.274455 0.850542 54 49 56
0.172506 0.287117 0.852215 90 91 96
0.248622 0.264798 0.811240 127 113 117
0.163120 0.292501 0.831139 31 32 35
0.198214 0.285328 0.824305 133 118 113
0.172951 0.292190 0.812763 48 51 52
0.267976 0.263291 0.778728 73 57 62
0.281836 0.258076 0.766613 126 115 117
0.178053 0.291907 0.807318 70 53 53
0.190687 0.288432 0.816220 129 152 156
0.191627 0.289851 0.795387 56 66 66
0.228141 0.281668 0.786137 101 77 73
0.228141 0.281668 0.786137 101 77 73
0.319932 0.247301 0.708453 94 112 114
0.315563 0.249363 0.712806 33 39 44
0.313761 0.250454 0.713161 75 86 94
0.237085 0.280228 0.771977 81 91 80
0.241703 0.279385 0.766794 153 174 178
0.290629 0.261746 0.733686 203 180 170
0.290629 0.261746 0.733686 203 180 170
0.239781 0.280655 0.760618 153 176 178
0.246964 0.279365 0.747662 118 139 143
0.292627 0.263123 0.721278 202 217 209
0.267831 0.272744 0.736998 46 53 52
0.267831 0.272744 0.736998 46 53 52
0.262939 0.275480 0.728798 135 167 168
0.289358 0.266100 0.710228 144 140 119
0.313251 0.256985 0.682213 211 224 222
0.337994 0.244755 0.655552 220 236 228
0.276046 0.272474 0.683921 32 48 69
0.321678 0.255211 0.653034 166 179 160
0.321678 0.255211 0.653034 166 179 160
0.286392 0.269293 0.669338 90 122 143
0.261644 0.274287 0.658936 91 86 91
0.322773 0.254822 0.646209 172 203 200
0.259933 0.273221 0.650316 146 148 126
0.334746 0.249568 0.627044 180 196 187
0.267762 0.270844 0.635376 105 104 89
0.282957 0.267343 0.620317 90 103 122
0.072876 0.295038 0.902499 86 95 130
0.130334 0.294518 0.860995 61 59 62
0.216055 0.272205 0.840826 77 73 78
0.139134 0.294723 0.848289 99 77 82
0.177952 0.288558 0.835490 142 174 190
0.243570 0.270081 0.804302 106 131 143
0.228432 0.275101 0.815124 186 170 157
0.220695 0.280605 0.808547 77 72 70
0.220695 0.280605 0.808547 77 72 70
0.196553 0.288714 0.800805 108 126 119
0.284115 0.262883 0.746883 208 191 176
0.293426 0.260070 0.733272 210 184 175
0.215175 0.286439 0.754319 24 35 31
0.309193 0.254100 0.713153 212 229 225
0.302502 0.257424 0.719167 207 192 182
0.218506 0.285506 0.741750 30 43 29
0.224134 0.284817 0.740520 18 23 23
0.253548 0.277974 0.736987 132 146 153
0.266816 0.273637 0.730696 151 170 171
0.271717 0.272489 0.726267 122 140 125
0.237496 0.281977 0.723575 71 76 72
0.237496 0.281977 0.723575 71 76 72
0.326202 0.249422 0.678553 225 241 231
0.261522 0.275986 0.724699 133 152 159
0.288714 0.267059 0.705356 52 60 67
0.297327 0.263590 0.698187 155 141 127
0.248972 0.279498 0.702589 5 14 11
0.326681 0.251408 0.661854 218 233 233
0.293070 0.266805 0.679771 151 179 189
0.293070 0.266805 0.679771 151 179 189
0.263091 0.272703 0.648073 159 153 136
0.112552 0.278924 0.923217 126 115 122
0.209904 0.268276 0.859552 99 79 76
0.232526 0.267054 0.831528 112 100 111
0.186821 0.286117 0.836877 138 125 124
0.252742 0.266844 0.797249 76 67 73
0.185793 0.287545 0.832792 131 151 158
0.285614 0.257981 0.758704 70 68 82
0.289472 0.257502 0.750841 101 118 131
0.221166 0.282736 0.794578 141 128 120
0.215848 0.284562 0.794414 66 73 68
0.196519 0.289467 0.786475 74 83 79
0.196519 0.289467 0.786475 74 83 79
0.220074 0.284494 0.784399 127 140 148
0.260009 0.272512 0.763165 172 165 160
0.234822 0.280917 0.774718 95 94 87
0.215784 0.286379 0.757285 50 64 62
0.290057 0.263810 0.724121 187 196 190
0.307022 0.256995 0.706631 229 239 238
0.320360 0.251319 0.689838 223 240 230
0.313902 0.255495 0.691127 216 237 234
0.248453 0.279570 0.706912 95 95 86
0.330345 0.250750 0.647961 194 210 207
0.305869 0.261978 0.666706 156 177 169
0.275707 0.269663 0.636079 59 54 58
0.132730 0.274025 0.919277 100 84 95
0.132730 0.274025 0.919277 100 84 95
0.170922 0.278446 0.881253 65 58 64
0.202155 0.286109 0.811834 136 153 151
0.185582 0.290833 0.798507 38 36 27
0.260276 0.272237 0.762989 174 167 159
0.248856 0.277084 0.764559 141 154 153
0.215511 0.286439 0.757478 58 70 65
0.216900 0.286063 0.749386 141 148 142
0.237974 0.281369 0.756253 61 62 60
0.290309 0.263977 0.723897 190 203 186
0.286924 0.266336 0.718525 149 162 156
0.241379 0.281715 0.720641 18 20 19
0.269538 0.273676 0.694315 67 67 91
0.269538 0.273676 0.694315 67 67 91
0.258228 0.276895 0.689827 64 72 83
0.270227 0.270960 0.638525 53 46 52
0.270227 0.270960 0.638525 53 46 52
0.279530 0.265355 0.747503 193 197 205
0.228872 0.283748 0.760521 103 116 108
0.297717 0.259462 0.723743 195 178 173
0.278491 0.271745 0.690095 114 149 173
0.292240 0.267296 0.667016 112 151 182
0.297151 0.264368 0.628123 50 50 55
0.185155 0.284231 0.847786 169 158 148
0.208497 0.279747 0.831415 175 153 141
0.190639 0.289178 0.808991 110 125 118
0.236724 0.278352 0.786386 167 183 180
0.265651 0.270718 0.757725 169 151 144
0.264450 0.275213 0.723214 125 149 153
0.311949 0.257277 0.685829 200 221 219
0.269662 0.274163 0.700180 75 78 99
0.260800 0.276699 0.690717 11 17 18
0.300883 0.264147 0.663025 146 173 190
